ncols        384
nrows        44
xllcorner    -70.5
yllcorner    -33.578125
cellsize     0.001953125000
NODATA_value -9999
-9999 -9999 -9999 -9999 -9999 -9999 -9999 -9999 -9999 -9999 -9999 -9999 -9999 -9999 -9999 -9999 -9999 -9999 -9999 -9999 -9999 -9999 -9999 -9999 -9999 -9999 -9999 -9999 -9999 -9999 -9999 -9999 -9999 -9999 -9999 -9999 -9999 -9999 -9999 -9999 -9999 -9999 -9999 -9999 -9999 -9999 -9999 -9999 -9999 -9999 -9999 -9999 -9999 -9999 -9999 -9999 -9999 -9999 -9999 -9999 -9999 -9999 -9999 -9999 -9999 -9999 -9999 -9999 -9999 -9999 -9999 -9999 -9999 -9999 -9999 -9999 -9999 2701 2672 2655 2610 2534 2490 2461 2440 2423 2421 2418 2395 2395 2371 2331 2270 2193 2131 2113 2146 2156 2179 2223 2245 2213 2157 2078 2024 2024 2042 2115 2191 2198 2207 2262 2340 2417 2403 2304 2214 2113 2038 2011 1946 1946 1918 1899 1872 1895 1943 1920 1933 1948 1959 2000 2121 2154 2094 2010 1935 1935 1865 1835 1790 1756 1743 1721 1685 1649 1661 1672 1667 1661 1628 1602 1623 1623 1673 1766 1837 1826 1798 1732 1678 1616 1543 1458 1441 1451 1460 1454 1455 1455 1499 1592 1722 1789 1803 1857 1992 2122 2168 2051 1943 1932 1895 1809 1650 1650 1619 1596 1565 1604 1658 1620 1591 1583 1584 1590 1593 1602 1620 1638 1687 1687 1746 1831 1929 2049 2102 1993 1891 1946 1929 1896 1903 1886 1929 1814 1774 1774 1760 1769 1779 1804 1836 1862 1884 1888 1901 1983 2104 2206 2321 2280 2172 2172 2072 2051 2180 2316 2466 2523 2587 2656 2756 2866 2980 3082 3121 3164 3204 3204 3245 3314 3376 3457 3564 3679 3863 3802 3945 4000 3895 3797 3706 3589 3502 3502 3515 3549 3576 3650 3750 3866 3981 4038 4038 4020 4061 4149 4222 4353 4466 4466 4435 4434 4423 4398 4314 4191 4076 3985 3945 3920 3907 3903 3891 3953 3902 3902 3745 3652 3630 3616 3655 3753 3884 4040 4191 4372 4528 4558 4448 4422 4495 4495 4546 4567 4486 4382 4324 4296 4300 4369 4467 4555 4529 4466 4423 4381 4349 4349 4331 4331 4334 4361 4392 4472 4607 4760 4910 5104 5326 5555 5714 -9999 -9999 -9999 -9999 -9999 -9999 -9999 -9999 -9999 -9999 -9999 -9999 -9999 -9999 -9999 -9999 -9999 -9999 -9999 -9999 -9999 -9999 -9999 -9999 -9999 -9999 -9999 -9999 -9999 -9999 -9999 -9999 -9999 -9999 -9999 -9999 -9999 -9999 -9999 -9999 -9999
-9999 -9999 -9999 -9999 -9999 -9999 -9999 -9999 -9999 -9999 -9999 -9999 -9999 -9999 -9999 -9999 -9999 -9999 -9999 -9999 -9999 -9999 -9999 -9999 -9999 -9999 -9999 -9999 -9999 -9999 -9999 -9999 -9999 -9999 -9999 -9999 -9999 -9999 -9999 -9999 -9999 -9999 -9999 -9999 -9999 -9999 -9999 -9999 -9999 -9999 -9999 -9999 -9999 -9999 -9999 -9999 -9999 -9999 -9999 -9999 -9999 -9999 -9999 -9999 -9999 -9999 -9999 -9999 -9999 -9999 -9999 -9999 -9999 -9999 -9999 -9999 -9999 2659 2643 2600 2536 2487 2469 2459 2453 2451 2448 2438 2432 2432 2405 2368 2317 2228 2156 2100 2047 2086 2119 2126 2109 2092 2049 1998 1933 1933 1964 2048 2089 2134 2162 2189 2254 2310 2326 2237 2153 2075 2013 1989 1945 1945 1896 1845 1796 1817 1835 1844 1872 1891 1889 1921 2026 2039 2018 1977 1894 1894 1824 1798 1769 1758 1743 1715 1651 1605 1582 1580 1574 1556 1541 1542 1542 1542 1535 1589 1709 1790 1765 1688 1634 1556 1441 1408 1408 1446 1472 1455 1476 1476 1472 1454 1513 1570 1631 1784 1910 2003 2047 1974 1860 1849 1802 1695 1552 1552 1553 1594 1671 1698 1758 1752 1692 1688 1671 1692 1699 1658 1615 1606 1614 1614 1649 1722 1815 1934 1975 1888 1813 1798 1783 1772 1751 1754 1778 1740 1795 1795 1853 1893 1941 1988 1991 2019 2028 2035 2029 2069 2163 2324 2453 2399 2307 2307 2169 2097 2158 2255 2364 2481 2594 2704 2828 2946 3074 3212 3287 3342 3364 3364 3407 3479 3531 3618 3684 3769 3976 3906 4070 4066 3962 3856 3750 3631 3554 3554 3553 3573 3602 3654 3704 3779 3913 4004 4066 4119 4136 4210 4295 4408 4538 4538 4522 4499 4434 4295 4192 4120 4042 3983 3957 3939 3929 3917 3966 4012 3902 3902 3770 3683 3701 3660 3676 3788 3927 4079 4221 4390 4457 4467 4517 4505 4577 4577 4661 4709 4620 4508 4425 4399 4400 4458 4547 4631 4696 4610 4529 4470 4435 4435 4412 4372 4364 4390 4411 4439 4517 4653 4893 5134 5389 5627 -9999 -9999 -9999 -9999 -9999 -9999 -9999 -9999 -9999 -9999 -9999 -9999 -9999 -9999 -9999 -9999 -9999 -9999 -9999 -9999 -9999 -9999 -9999 -9999 -9999 -9999 -9999 -9999 -9999 -9999 -9999 -9999 -9999 -9999 -9999 -9999 -9999 -9999 -9999 -9999 -9999 -9999
-9999 -9999 -9999 -9999 -9999 -9999 -9999 -9999 -9999 -9999 -9999 -9999 -9999 -9999 -9999 -9999 -9999 -9999 -9999 -9999 -9999 -9999 -9999 -9999 -9999 -9999 -9999 -9999 -9999 -9999 -9999 -9999 -9999 -9999 -9999 -9999 -9999 -9999 -9999 -9999 -9999 -9999 -9999 -9999 -9999 -9999 -9999 -9999 -9999 -9999 -9999 -9999 -9999 -9999 -9999 -9999 -9999 -9999 -9999 -9999 -9999 -9999 -9999 -9999 -9999 -9999 -9999 -9999 -9999 -9999 -9999 -9999 -9999 -9999 -9999 -9999 2673 2628 2568 2522 2494 2481 2482 2484 2478 2459 2429 2391 2369 2369 2368 2374 2328 2233 2143 2060 1989 1998 2007 1995 1993 1994 1961 1930 1874 1874 1919 1970 1978 2032 2120 2129 2167 2228 2283 2236 2174 2079 2018 2013 1997 1997 1914 1841 1785 1746 1771 1801 1835 1852 1845 1849 1932 1967 1968 1962 1871 1871 1797 1772 1759 1746 1733 1698 1632 1585 1550 1506 1497 1487 1490 1495 1494 1494 1480 1483 1556 1654 1702 1660 1584 1503 1404 1386 1448 1568 1613 1625 1612 1612 1662 1553 1481 1460 1521 1697 1784 1851 1888 1836 1694 1656 1614 1557 1628 1628 1713 1798 1874 1833 1850 1843 1805 1810 1765 1809 1822 1778 1695 1628 1615 1615 1620 1638 1706 1814 1869 1776 1730 1718 1701 1718 1735 1751 1764 1795 1898 1898 2008 2085 2133 2158 2157 2203 2199 2200 2189 2203 2311 2447 2516 2490 2424 2424 2259 2146 2215 2303 2410 2501 2592 2712 2822 2935 3065 3209 3336 3441 3507 3507 3552 3635 3721 3794 3856 3922 4061 4013 4120 4108 3999 3887 3784 3660 3566 3566 3569 3583 3614 3670 3706 3748 3830 3901 3949 4041 4143 4259 4360 4502 4641 4641 4685 4669 4583 4423 4283 4174 4072 3993 3971 3963 3956 3970 4104 4101 3954 3954 3808 3738 3748 3704 3693 3791 3923 4074 4194 4322 4338 4327 4427 4459 4539 4539 4673 4781 4762 4660 4571 4515 4508 4569 4682 4728 4832 4744 4668 4606 4525 4525 4465 4412 4394 4396 4431 4446 4493 4621 4833 5107 5386 5628 -9999 -9999 -9999 -9999 -9999 -9999 -9999 -9999 -9999 -9999 -9999 -9999 -9999 -9999 -9999 -9999 -9999 -9999 -9999 -9999 -9999 -9999 -9999 -9999 -9999 -9999 -9999 -9999 -9999 -9999 -9999 -9999 -9999 -9999 -9999 -9999 -9999 -9999 -9999 -9999 -9999 -9999
-9999 -9999 -9999 -9999 -9999 -9999 -9999 -9999 -9999 -9999 -9999 -9999 -9999 -9999 -9999 -9999 -9999 -9999 -9999 -9999 -9999 -9999 -9999 -9999 -9999 -9999 -9999 -9999 -9999 -9999 -9999 -9999 -9999 -9999 -9999 -9999 -9999 -9999 -9999 -9999 -9999 -9999 -9999 -9999 -9999 -9999 -9999 -9999 -9999 -9999 -9999 -9999 -9999 -9999 -9999 -9999 -9999 -9999 -9999 -9999 -9999 -9999 -9999 -9999 -9999 -9999 -9999 -9999 -9999 -9999 -9999 -9999 -9999 -9999 -9999 -9999 2620 2579 2520 2488 2478 2478 2475 2469 2457 2430 2386 2337 2329 2329 2328 2326 2320 2243 2140 2028 1933 1922 1894 1904 1931 1911 1891 1882 1841 1841 1858 1879 1907 1993 2070 2008 2057 2165 2254 2265 2154 2032 1943 1912 1920 1920 1869 1797 1728 1709 1745 1813 1851 1861 1852 1801 1840 1900 1936 1959 1891 1891 1812 1761 1744 1732 1720 1683 1587 1534 1516 1479 1456 1449 1453 1463 1473 1473 1459 1439 1438 1486 1536 1552 1538 1453 1380 1410 1531 1647 1722 1759 1748 1748 1793 1784 1736 1608 1471 1553 1696 1759 1810 1723 1602 1536 1584 1676 1766 1766 1880 2017 2057 2002 1994 1966 1932 1920 1857 1874 1876 1825 1717 1661 1637 1637 1627 1634 1646 1695 1720 1681 1667 1688 1768 1849 1889 1840 1852 1902 2020 2020 2155 2227 2282 2319 2344 2392 2378 2370 2363 2335 2462 2628 2633 2558 2479 2479 2349 2240 2222 2338 2477 2597 2659 2719 2794 2889 3002 3128 3254 3396 3506 3506 3526 3613 3694 3818 3956 4076 4088 4165 4243 4157 4036 3903 3779 3659 3586 3586 3577 3603 3652 3713 3742 3766 3826 3885 3941 4022 4099 4157 4267 4415 4634 4634 4834 4844 4682 4508 4355 4220 4098 4034 3998 3982 3975 4017 4106 4082 3983 3983 3872 3842 3848 3786 3765 3757 3846 3955 4059 4169 4210 4258 4362 4371 4453 4453 4598 4746 4873 4832 4742 4686 4660 4672 4781 4868 4950 4886 4803 4703 4633 4633 4541 4444 4432 4450 4463 4477 4512 4599 4747 4997 5302 5594 5780 -9999 -9999 -9999 -9999 -9999 -9999 -9999 -9999 -9999 -9999 -9999 -9999 -9999 -9999 -9999 -9999 -9999 -9999 -9999 -9999 -9999 -9999 -9999 -9999 -9999 -9999 -9999 -9999 -9999 -9999 -9999 -9999 -9999 -9999 -9999 -9999 -9999 -9999 -9999 -9999 -9999
-9999 -9999 -9999 -9999 -9999 -9999 -9999 -9999 -9999 -9999 -9999 -9999 -9999 -9999 -9999 -9999 -9999 -9999 -9999 -9999 -9999 -9999 -9999 -9999 -9999 -9999 -9999 -9999 -9999 -9999 -9999 -9999 -9999 -9999 -9999 -9999 -9999 -9999 -9999 -9999 -9999 -9999 -9999 -9999 -9999 -9999 -9999 -9999 -9999 -9999 -9999 -9999 -9999 -9999 -9999 -9999 -9999 -9999 -9999 -9999 -9999 -9999 -9999 -9999 -9999 -9999 -9999 -9999 -9999 -9999 -9999 -9999 -9999 -9999 -9999 -9999 2576 2531 2507 2506 2493 2479 2447 2425 2401 2360 2322 2283 2263 2263 2260 2251 2251 2222 2141 2026 1907 1848 1825 1841 1879 1866 1846 1852 1840 1840 1787 1812 1894 1979 2038 1947 1940 2041 2111 2167 2036 1939 1882 1865 1881 1881 1849 1782 1699 1671 1697 1750 1791 1800 1796 1754 1774 1826 1862 1888 1848 1848 1802 1755 1725 1701 1658 1596 1557 1523 1510 1490 1442 1420 1422 1440 1453 1453 1434 1403 1359 1364 1385 1391 1405 1374 1378 1437 1546 1659 1749 1837 1903 1903 1938 1947 1846 1720 1530 1484 1629 1746 1720 1705 1638 1660 1801 1883 1968 1968 2050 2173 2223 2202 2184 2138 2101 2044 1968 1892 1806 1757 1742 1751 1704 1704 1667 1656 1651 1649 1652 1671 1725 1784 1895 2009 2020 1964 1939 2016 2142 2142 2264 2334 2401 2479 2544 2564 2526 2475 2505 2451 2516 2669 2736 2642 2569 2569 2493 2349 2271 2313 2422 2509 2587 2668 2743 2847 2973 3108 3249 3382 3406 3406 3434 3511 3616 3770 3919 4034 4076 4151 4267 4188 4052 3918 3789 3673 3650 3650 3643 3640 3720 3794 3824 3856 3907 3966 4022 4063 4095 4128 4228 4363 4529 4529 4752 4961 4878 4605 4377 4217 4125 4077 4051 4062 4066 4132 4118 4042 3973 3973 3901 3922 3927 3894 3855 3815 3823 3879 3971 4072 4167 4272 4291 4321 4438 4438 4574 4723 4874 4955 4945 4901 4842 4823 4867 4990 5111 5026 4913 4842 4789 4789 4636 4508 4461 4475 4487 4495 4525 4590 4741 4993 5275 5525 5725 -9999 -9999 -9999 -9999 -9999 -9999 -9999 -9999 -9999 -9999 -9999 -9999 -9999 -9999 -9999 -9999 -9999 -9999 -9999 -9999 -9999 -9999 -9999 -9999 -9999 -9999 -9999 -9999 -9999 -9999 -9999 -9999 -9999 -9999 -9999 -9999 -9999 -9999 -9999 -9999 -9999
-9999 -9999 -9999 -9999 -9999 -9999 -9999 -9999 -9999 -9999 -9999 -9999 -9999 -9999 -9999 -9999 -9999 -9999 -9999 -9999 -9999 -9999 -9999 -9999 -9999 -9999 -9999 -9999 -9999 -9999 -9999 -9999 -9999 -9999 -9999 -9999 -9999 -9999 -9999 -9999 -9999 -9999 -9999 -9999 -9999 -9999 -9999 -9999 -9999 -9999 -9999 -9999 -9999 -9999 -9999 -9999 -9999 -9999 -9999 -9999 -9999 -9999 -9999 -9999 -9999 -9999 -9999 -9999 -9999 -9999 -9999 -9999 -9999 -9999 -9999 -9999 2556 2531 2532 2544 2533 2501 2473 2460 2409 2358 2334 2293 2239 2239 2164 2117 2116 2108 2087 2010 1924 1857 1816 1792 1842 1861 1845 1805 1828 1828 1749 1793 1849 1922 1948 1887 1844 1919 1995 2037 1932 1855 1832 1824 1825 1825 1827 1775 1684 1639 1656 1669 1701 1714 1713 1716 1725 1759 1793 1817 1764 1764 1738 1710 1702 1676 1630 1580 1544 1508 1484 1470 1424 1395 1394 1413 1399 1399 1366 1346 1340 1369 1359 1352 1358 1372 1448 1537 1609 1703 1804 1907 2014 2014 2082 2018 1886 1783 1679 1525 1491 1549 1556 1566 1563 1721 1892 2044 2154 2154 2225 2341 2407 2402 2404 2330 2238 2160 2033 1887 1844 1895 1942 1920 1822 1822 1753 1700 1699 1678 1702 1758 1821 1897 1986 2118 2170 2118 2059 2122 2249 2249 2402 2516 2560 2655 2728 2745 2678 2597 2595 2584 2623 2683 2771 2751 2673 2673 2594 2482 2367 2308 2392 2478 2562 2617 2717 2854 2975 3086 3219 3314 3334 3334 3397 3492 3608 3709 3782 3886 4047 4019 4157 4198 4074 3956 3860 3735 3686 3686 3672 3679 3774 3811 3845 3903 3937 3994 4030 4058 4092 4121 4230 4449 4670 4670 4807 4999 4934 4663 4427 4239 4165 4166 4177 4175 4220 4295 4247 4172 4085 4085 3988 3976 3973 3918 3859 3866 3886 3894 3928 4006 4130 4191 4245 4299 4424 4424 4538 4643 4759 4850 4949 5049 5038 5002 5035 5135 5247 5192 5112 5100 4954 4954 4802 4604 4508 4502 4501 4519 4554 4622 4746 5006 5318 5584 -9999 -9999 -9999 -9999 -9999 -9999 -9999 -9999 -9999 -9999 -9999 -9999 -9999 -9999 -9999 -9999 -9999 -9999 -9999 -9999 -9999 -9999 -9999 -9999 -9999 -9999 -9999 -9999 -9999 -9999 -9999 -9999 -9999 -9999 -9999 -9999 -9999 -9999 -9999 -9999 -9999 -9999
-9999 -9999 -9999 -9999 -9999 -9999 -9999 -9999 -9999 -9999 -9999 -9999 -9999 -9999 -9999 -9999 -9999 -9999 -9999 -9999 -9999 -9999 -9999 -9999 -9999 -9999 -9999 -9999 -9999 -9999 -9999 -9999 -9999 -9999 -9999 -9999 -9999 -9999 -9999 -9999 -9999 -9999 -9999 -9999 -9999 -9999 -9999 -9999 -9999 -9999 -9999 -9999 -9999 -9999 -9999 -9999 -9999 -9999 -9999 -9999 -9999 -9999 -9999 -9999 -9999 -9999 -9999 -9999 -9999 -9999 -9999 -9999 -9999 -9999 -9999 2577 2551 2541 2545 2570 2570 2544 2495 2441 2393 2353 2319 2289 2271 2271 2207 2091 2009 1993 1959 1946 1928 1867 1815 1774 1795 1878 1871 1795 1754 1754 1729 1726 1793 1866 1838 1822 1780 1818 1898 1937 1849 1792 1786 1789 1785 1785 1798 1740 1671 1607 1629 1632 1660 1679 1689 1689 1692 1697 1718 1748 1717 1717 1722 1726 1706 1678 1629 1575 1544 1503 1472 1433 1395 1376 1368 1384 1371 1371 1334 1335 1454 1568 1522 1458 1415 1482 1584 1655 1711 1760 1869 1979 2094 2094 2162 2083 1974 1875 1779 1661 1584 1555 1616 1717 1689 1855 2039 2163 2248 2248 2328 2426 2556 2583 2513 2364 2214 2085 1960 1926 2018 2041 2035 1984 1846 1846 1746 1738 1781 1766 1796 1870 1936 2014 2107 2191 2297 2298 2262 2276 2404 2404 2522 2682 2743 2794 2878 2878 2815 2738 2730 2753 2765 2820 2858 2834 2735 2735 2644 2569 2496 2400 2380 2475 2589 2661 2711 2797 2892 3007 3128 3215 3290 3290 3386 3494 3569 3639 3715 3823 4044 3960 4127 4241 4146 4032 3930 3805 3718 3718 3716 3749 3785 3780 3801 3911 3982 4010 4048 4086 4125 4171 4270 4466 4723 4723 4898 4970 4842 4668 4478 4312 4258 4298 4362 4360 4352 4445 4407 4329 4213 4213 4097 4014 4006 3946 3903 3906 3919 3942 3954 3971 4034 4103 4184 4235 4303 4303 4381 4482 4598 4712 4811 4913 5033 5094 5134 5224 5321 5374 5345 5253 5096 5096 4886 4687 4576 4547 4545 4566 4610 4707 4819 5034 5361 5638 -9999 -9999 -9999 -9999 -9999 -9999 -9999 -9999 -9999 -9999 -9999 -9999 -9999 -9999 -9999 -9999 -9999 -9999 -9999 -9999 -9999 -9999 -9999 -9999 -9999 -9999 -9999 -9999 -9999 -9999 -9999 -9999 -9999 -9999 -9999 -9999 -9999 -9999 -9999 -9999 -9999 -9999
-9999 -9999 -9999 -9999 -9999 -9999 -9999 -9999 -9999 -9999 -9999 -9999 -9999 -9999 -9999 -9999 -9999 -9999 -9999 -9999 -9999 -9999 -9999 -9999 -9999 -9999 -9999 -9999 -9999 -9999 -9999 -9999 -9999 -9999 -9999 -9999 -9999 -9999 -9999 -9999 -9999 -9999 -9999 -9999 -9999 -9999 -9999 -9999 -9999 -9999 -9999 -9999 -9999 -9999 -9999 -9999 -9999 -9999 -9999 -9999 -9999 -9999 -9999 -9999 -9999 -9999 -9999 -9999 -9999 -9999 -9999 -9999 -9999 -9999 -9999 2589 2561 2539 2550 2588 2598 2557 2488 2441 2396 2351 2342 2332 2322 2322 2239 2128 2031 1951 1924 1901 1867 1834 1799 1774 1759 1829 1885 1853 1778 1778 1698 1691 1772 1806 1795 1777 1732 1760 1827 1850 1816 1760 1725 1731 1750 1750 1734 1669 1636 1590 1601 1604 1616 1644 1687 1680 1662 1632 1641 1704 1717 1717 1688 1663 1627 1598 1562 1542 1476 1466 1458 1412 1376 1376 1371 1341 1336 1336 1321 1346 1531 1730 1701 1611 1540 1620 1694 1800 1866 1880 1937 2046 2162 2162 2207 2086 1957 1848 1799 1809 1735 1722 1767 1833 1877 2004 2158 2258 2339 2339 2401 2499 2625 2610 2487 2323 2158 2036 2009 2082 2182 2141 2111 2028 1889 1889 1803 1782 1835 1888 1911 1984 2062 2137 2238 2315 2400 2484 2480 2425 2570 2570 2689 2774 2890 2943 3055 3041 2995 2915 2916 2922 2930 2974 3030 3000 2921 2921 2837 2760 2685 2552 2448 2454 2568 2694 2761 2808 2859 2925 3015 3118 3226 3226 3328 3440 3560 3690 3805 3911 4074 4037 4194 4308 4199 4061 3934 3808 3753 3753 3755 3765 3770 3766 3806 3885 3974 4078 4094 4138 4199 4250 4321 4424 4566 4566 4722 4852 4864 4715 4537 4374 4355 4432 4505 4479 4500 4571 4546 4437 4319 4319 4183 4068 4033 3984 3961 3942 3945 3960 3974 3993 4015 4056 4102 4130 4175 4175 4235 4320 4443 4564 4671 4778 4874 4938 4988 5126 5290 5435 5452 5298 5196 5196 4985 4792 4665 4624 4622 4659 4696 4768 4927 5094 5443 5746 -9999 -9999 -9999 -9999 -9999 -9999 -9999 -9999 -9999 -9999 -9999 -9999 -9999 -9999 -9999 -9999 -9999 -9999 -9999 -9999 -9999 -9999 -9999 -9999 -9999 -9999 -9999 -9999 -9999 -9999 -9999 -9999 -9999 -9999 -9999 -9999 -9999 -9999 -9999 -9999 -9999 -9999
-9999 -9999 -9999 -9999 -9999 -9999 -9999 -9999 -9999 -9999 -9999 -9999 -9999 -9999 -9999 -9999 -9999 -9999 -9999 -9999 -9999 -9999 -9999 -9999 -9999 -9999 -9999 -9999 -9999 -9999 -9999 -9999 -9999 -9999 -9999 -9999 -9999 -9999 -9999 -9999 -9999 -9999 -9999 -9999 -9999 -9999 -9999 -9999 -9999 -9999 -9999 -9999 -9999 -9999 -9999 -9999 -9999 -9999 -9999 -9999 -9999 -9999 -9999 -9999 -9999 -9999 -9999 -9999 -9999 -9999 -9999 -9999 -9999 -9999 -9999 2586 2574 2536 2533 2564 2588 2573 2513 2451 2417 2398 2386 2372 2336 2336 2274 2194 2081 2008 2008 2002 1969 1907 1836 1789 1745 1762 1850 1901 1813 1813 1719 1643 1682 1706 1729 1712 1657 1719 1771 1795 1795 1755 1695 1650 1651 1651 1657 1637 1628 1591 1550 1557 1576 1589 1659 1700 1673 1635 1601 1630 1661 1661 1678 1657 1611 1563 1482 1427 1388 1391 1390 1368 1341 1335 1320 1312 1316 1316 1327 1373 1541 1772 1815 1707 1681 1756 1827 1937 2006 2009 2001 2099 2216 2216 2219 2087 1947 1926 1986 1973 1956 1900 1914 2004 2116 2196 2262 2343 2417 2417 2496 2578 2659 2552 2422 2277 2143 2064 2162 2298 2310 2238 2169 2058 1957 1957 1868 1871 1877 1964 2041 2108 2180 2263 2370 2478 2528 2605 2709 2649 2684 2684 2843 2974 3101 3144 3197 3242 3227 3112 3093 3124 3075 3155 3293 3217 3117 3117 3035 2956 2830 2673 2542 2500 2549 2622 2664 2719 2782 2867 2947 3037 3146 3146 3247 3363 3551 3729 3888 4030 4110 4132 4255 4345 4225 4050 3934 3829 3784 3784 3776 3741 3767 3807 3847 3915 3983 4087 4196 4268 4317 4370 4438 4529 4651 4651 4775 4837 4831 4768 4624 4484 4420 4494 4603 4665 4716 4726 4592 4454 4291 4291 4161 4119 4087 4026 4043 4004 3974 3981 3985 4003 4032 4065 4087 4103 4122 4122 4161 4220 4328 4453 4536 4652 4743 4833 4950 5092 5223 5331 5422 5428 5321 5321 5125 4930 4805 4740 4738 4776 4843 4870 5035 5265 5507 5748 -9999 -9999 -9999 -9999 -9999 -9999 -9999 -9999 -9999 -9999 -9999 -9999 -9999 -9999 -9999 -9999 -9999 -9999 -9999 -9999 -9999 -9999 -9999 -9999 -9999 -9999 -9999 -9999 -9999 -9999 -9999 -9999 -9999 -9999 -9999 -9999 -9999 -9999 -9999 -9999 -9999 -9999
-9999 -9999 -9999 -9999 -9999 -9999 -9999 -9999 -9999 -9999 -9999 -9999 -9999 -9999 -9999 -9999 -9999 -9999 -9999 -9999 -9999 -9999 -9999 -9999 -9999 -9999 -9999 -9999 -9999 -9999 -9999 -9999 -9999 -9999 -9999 -9999 -9999 -9999 -9999 -9999 -9999 -9999 -9999 -9999 -9999 -9999 -9999 -9999 -9999 -9999 -9999 -9999 -9999 -9999 -9999 -9999 -9999 -9999 -9999 -9999 -9999 -9999 -9999 -9999 -9999 -9999 -9999 -9999 -9999 -9999 -9999 -9999 -9999 -9999 2589 2574 2553 2522 2507 2539 2569 2568 2541 2490 2446 2425 2420 2370 2272 2272 2167 2106 2045 2013 2049 2069 2008 1904 1822 1758 1724 1786 1868 1914 1831 1831 1747 1648 1574 1587 1651 1672 1604 1590 1648 1693 1718 1751 1683 1601 1593 1593 1622 1640 1654 1625 1574 1524 1521 1591 1665 1711 1676 1635 1584 1558 1564 1564 1575 1545 1512 1464 1445 1354 1318 1328 1322 1299 1301 1309 1317 1331 1345 1345 1356 1400 1590 1843 1914 1800 1807 1893 1953 2036 2136 2148 2106 2174 2281 2281 2208 2066 1985 2081 2214 2243 2212 2125 2073 2140 2237 2331 2415 2462 2522 2522 2595 2687 2730 2597 2449 2301 2141 2183 2372 2462 2406 2317 2217 2121 2032 2032 1921 1911 1958 2036 2148 2254 2323 2402 2479 2588 2701 2709 2848 2906 2855 2855 2974 3144 3289 3316 3284 3408 3442 3370 3300 3321 3264 3257 3407 3373 3296 3296 3175 3052 2906 2744 2617 2561 2573 2618 2708 2795 2895 2995 3105 3188 3153 3153 3231 3340 3486 3676 3821 3965 4125 4134 4327 4334 4149 4019 3927 3864 3824 3824 3821 3768 3797 3896 3923 3973 4059 4147 4245 4365 4454 4505 4565 4664 4795 4795 4885 4828 4778 4791 4743 4654 4595 4581 4671 4824 4916 4793 4590 4405 4248 4248 4180 4167 4136 4094 4166 4094 4022 4001 4005 4009 4028 4049 4061 4079 4110 4110 4144 4186 4245 4337 4441 4575 4691 4783 4867 4972 5092 5190 5270 5375 5413 5413 5255 5097 4960 4900 4898 4917 4983 5070 5235 5387 5617 5822 -9999 -9999 -9999 -9999 -9999 -9999 -9999 -9999 -9999 -9999 -9999 -9999 -9999 -9999 -9999 -9999 -9999 -9999 -9999 -9999 -9999 -9999 -9999 -9999 -9999 -9999 -9999 -9999 -9999 -9999 -9999 -9999 -9999 -9999 -9999 -9999 -9999 -9999 -9999 -9999 -9999 -9999
-9999 -9999 -9999 -9999 -9999 -9999 -9999 -9999 -9999 -9999 -9999 -9999 -9999 -9999 -9999 -9999 -9999 -9999 -9999 -9999 -9999 -9999 -9999 -9999 -9999 -9999 -9999 -9999 -9999 -9999 -9999 -9999 -9999 -9999 -9999 -9999 -9999 -9999 -9999 -9999 -9999 -9999 -9999 -9999 -9999 -9999 -9999 -9999 -9999 -9999 -9999 -9999 -9999 -9999 -9999 -9999 -9999 -9999 -9999 -9999 -9999 -9999 -9999 -9999 -9999 -9999 -9999 -9999 -9999 -9999 -9999 -9999 -9999 -9999 2581 2545 2526 2506 2487 2523 2540 2514 2467 2467 2456 2434 2414 2353 2230 2230 2106 2019 1963 1926 1952 1991 2002 1920 1837 1753 1702 1777 1871 1929 1890 1890 1780 1648 1515 1480 1545 1608 1633 1539 1546 1612 1671 1707 1633 1566 1574 1574 1630 1644 1641 1597 1543 1512 1471 1577 1673 1727 1702 1677 1626 1549 1486 1486 1449 1400 1378 1339 1306 1291 1279 1287 1290 1314 1343 1342 1364 1363 1379 1379 1395 1451 1619 1840 1994 1949 1937 2019 2080 2126 2209 2273 2234 2288 2320 2320 2193 2058 2084 2182 2315 2433 2412 2392 2303 2335 2440 2453 2544 2614 2674 2674 2719 2805 2806 2650 2455 2273 2193 2300 2503 2587 2503 2395 2327 2229 2104 2104 2006 1947 1990 2099 2231 2359 2466 2545 2626 2692 2813 2873 2936 3058 3115 3115 3109 3244 3461 3565 3500 3535 3608 3554 3440 3458 3459 3385 3432 3432 3333 3333 3171 3083 2983 2856 2700 2611 2640 2732 2819 2911 3004 3111 3239 3329 3257 3257 3268 3369 3484 3614 3748 3897 4125 4105 4329 4289 4101 4006 3941 3904 3860 3860 3855 3813 3813 3926 4029 4075 4136 4217 4329 4441 4563 4657 4722 4811 4932 4932 4992 4884 4761 4768 4779 4781 4773 4744 4794 4939 4947 4768 4604 4442 4295 4295 4229 4204 4209 4249 4286 4161 4059 4044 4044 4078 4072 4074 4076 4092 4125 4125 4160 4198 4244 4300 4395 4518 4600 4645 4732 4828 4961 5077 5186 5279 5352 5352 5340 5301 5186 5077 5073 5120 5205 5320 5451 5636 5854 -9999 -9999 -9999 -9999 -9999 -9999 -9999 -9999 -9999 -9999 -9999 -9999 -9999 -9999 -9999 -9999 -9999 -9999 -9999 -9999 -9999 -9999 -9999 -9999 -9999 -9999 -9999 -9999 -9999 -9999 -9999 -9999 -9999 -9999 -9999 -9999 -9999 -9999 -9999 -9999 -9999 -9999 -9999
-9999 -9999 -9999 -9999 -9999 -9999 -9999 -9999 -9999 -9999 -9999 -9999 -9999 -9999 -9999 -9999 -9999 -9999 -9999 -9999 -9999 -9999 -9999 -9999 -9999 -9999 -9999 -9999 -9999 -9999 -9999 -9999 -9999 -9999 -9999 -9999 -9999 -9999 -9999 -9999 -9999 -9999 -9999 -9999 -9999 -9999 -9999 -9999 -9999 -9999 -9999 -9999 -9999 -9999 -9999 -9999 -9999 -9999 -9999 -9999 -9999 -9999 -9999 -9999 -9999 -9999 -9999 -9999 -9999 2502 2513 2541 2591 2591 2581 2545 2526 2506 2487 2523 2540 2514 2467 2467 2456 2434 2414 2353 2230 2230 2106 2019 1963 1926 1952 1991 2002 1920 1837 1753 1702 1777 1871 1929 1890 1890 1780 1648 1515 1480 1545 1608 1633 1539 1546 1612 1671 1707 1633 1566 1574 1574 1630 1644 1641 1597 1543 1512 1471 1577 1673 1727 1702 1677 1626 1549 1486 1486 1449 1400 1378 1339 1306 1291 1279 1287 1290 1314 1343 1342 1364 1363 1379 1379 1395 1451 1619 1840 1994 1949 1937 2019 2080 2126 2209 2273 2234 2288 2320 2320 2193 2058 2084 2182 2315 2433 2412 2392 2303 2335 2440 2453 2544 2614 2674 2674 2719 2805 2806 2650 2455 2273 2193 2300 2503 2587 2503 2395 2327 2229 2104 2104 2006 1947 1990 2099 2231 2359 2466 2545 2626 2692 2813 2873 2936 3058 3115 3115 3109 3244 3461 3565 3500 3535 3608 3554 3440 3458 3459 3385 3432 3432 3333 3333 3171 3083 2983 2856 2700 2611 2640 2732 2819 2911 3004 3111 3239 3329 3257 3257 3268 3369 3484 3614 3748 3897 4125 4105 4329 4289 4101 4006 3941 3904 3860 3860 3855 3813 3813 3926 4029 4075 4136 4217 4329 4441 4563 4657 4722 4811 4932 4932 4992 4884 4761 4768 4779 4781 4773 4744 4794 4939 4947 4768 4604 4442 4295 4295 4229 4204 4209 4249 4286 4161 4059 4044 4044 4078 4072 4074 4076 4092 4125 4125 4160 4198 4244 4300 4395 4518 4600 4645 4732 4828 4961 5077 5186 5279 5352 -9999 5340 5301 5186 5077 5073 5120 5205 5320 5451 5636 5854 -9999 -9999 -9999 -9999 -9999 -9999 -9999 -9999 -9999 -9999 -9999 -9999 -9999 -9999 -9999 -9999 -9999 -9999 -9999 -9999 -9999 -9999 -9999 -9999 -9999 -9999 -9999 -9999 -9999 -9999 -9999 -9999 -9999 -9999 -9999 -9999 -9999 -9999 -9999 -9999 -9999 -9999 -9999
-9999 -9999 -9999 -9999 -9999 -9999 -9999 -9999 -9999 -9999 -9999 -9999 -9999 -9999 -9999 -9999 -9999 -9999 -9999 -9999 -9999 -9999 -9999 -9999 -9999 -9999 -9999 -9999 -9999 -9999 -9999 -9999 -9999 -9999 -9999 -9999 -9999 -9999 -9999 -9999 -9999 -9999 -9999 -9999 -9999 -9999 -9999 -9999 -9999 -9999 -9999 -9999 -9999 -9999 -9999 -9999 -9999 -9999 -9999 -9999 -9999 -9999 -9999 -9999 -9999 -9999 -9999 -9999 2436 2448 2458 2496 2559 2559 2564 2526 2486 2475 2468 2518 2500 2449 2419 2435 2439 2448 2420 2341 2218 2218 2098 2004 1935 1880 1856 1891 1915 1912 1855 1786 1686 1677 1784 1854 1864 1864 1772 1651 1535 1426 1457 1569 1621 1519 1505 1556 1543 1599 1576 1527 1569 1569 1616 1631 1638 1586 1516 1460 1446 1562 1657 1729 1719 1669 1620 1547 1462 1462 1397 1330 1274 1266 1283 1287 1290 1298 1321 1408 1415 1396 1454 1432 1418 1418 1441 1520 1653 1910 2078 2098 2093 2109 2203 2277 2307 2383 2373 2398 2328 2328 2196 2130 2198 2288 2413 2542 2560 2536 2476 2479 2609 2652 2736 2806 2832 2832 2881 2915 2810 2637 2437 2313 2314 2455 2646 2668 2570 2501 2424 2310 2171 2171 2103 2027 2009 2058 2198 2337 2478 2609 2732 2818 2928 3012 3075 3143 3249 3249 3260 3388 3601 3709 3686 3648 3718 3670 3594 3554 3640 3540 3505 3423 3303 3303 3215 3200 3135 2962 2780 2684 2698 2760 2891 3018 3127 3250 3377 3440 3392 3392 3392 3409 3498 3611 3730 3879 4131 4102 4341 4390 4227 4060 3969 3918 3887 3887 3881 3841 3836 3931 4083 4141 4212 4312 4443 4542 4652 4794 4833 4866 4898 4898 4881 4831 4735 4734 4767 4751 4794 4835 4916 5012 4929 4779 4639 4482 4355 4355 4277 4266 4320 4408 4363 4198 4119 4105 4137 4211 4200 4140 4141 4157 4178 4178 4214 4227 4245 4288 4382 4517 4589 4668 4715 4783 4887 5041 5176 5255 5293 -9999 -9999 5329 5344 5291 5271 5294 5390 5528 5638 5790 5946 -9999 -9999 -9999 -9999 -9999 -9999 -9999 -9999 -9999 -9999 -9999 -9999 -9999 -9999 -9999 -9999 -9999 -9999 -9999 -9999 -9999 -9999 -9999 -9999 -9999 -9999 -9999 -9999 -9999 -9999 -9999 -9999 -9999 -9999 -9999 -9999 -9999 -9999 -9999 -9999 -9999 -9999 -9999
-9999 -9999 -9999 -9999 -9999 -9999 -9999 -9999 -9999 -9999 -9999 -9999 -9999 -9999 -9999 -9999 -9999 -9999 -9999 -9999 -9999 -9999 -9999 -9999 -9999 -9999 -9999 -9999 -9999 -9999 -9999 -9999 -9999 -9999 -9999 -9999 -9999 -9999 -9999 -9999 -9999 -9999 -9999 -9999 -9999 -9999 -9999 -9999 -9999 -9999 -9999 -9999 -9999 -9999 -9999 -9999 -9999 -9999 -9999 -9999 -9999 -9999 -9999 -9999 -9999 -9999 -9999 2460 2424 2402 2419 2462 2519 2519 2556 2521 2467 2441 2439 2469 2435 2400 2411 2407 2414 2433 2410 2303 2175 2175 2074 1984 1923 1871 1824 1813 1795 1781 1807 1792 1649 1622 1688 1728 1730 1730 1716 1664 1540 1405 1399 1464 1525 1517 1457 1436 1449 1532 1512 1525 1572 1572 1612 1653 1664 1596 1505 1420 1404 1551 1674 1686 1644 1579 1501 1453 1394 1394 1294 1257 1259 1294 1318 1319 1316 1355 1435 1479 1453 1485 1547 1535 1475 1475 1483 1580 1717 1958 2093 2170 2256 2261 2271 2373 2448 2484 2517 2476 2357 2357 2218 2240 2325 2420 2564 2653 2672 2691 2672 2653 2732 2796 2849 2968 2989 2989 2987 2904 2752 2575 2400 2369 2452 2582 2724 2739 2659 2576 2499 2423 2322 2322 2202 2094 2087 2084 2178 2322 2452 2569 2678 2785 2874 2909 2980 3097 3248 3248 3388 3463 3639 3760 3832 3787 3839 3814 3741 3673 3690 3648 3584 3482 3376 3376 3321 3275 3169 2972 2815 2830 2864 2850 2889 3021 3156 3305 3443 3551 3545 3545 3553 3556 3562 3634 3734 3897 4131 4146 4380 4452 4270 4069 3976 3937 3908 3908 3898 3873 3881 3948 4097 4224 4341 4452 4576 4698 4783 4769 4753 4809 4780 4780 4650 4629 4654 4667 4670 4677 4780 4913 5027 5091 4964 4819 4712 4615 4482 4482 4409 4440 4517 4460 4304 4196 4152 4168 4256 4320 4340 4272 4275 4304 4296 4296 4289 4271 4283 4301 4353 4493 4638 4779 4836 4865 4940 5040 5160 5221 5250 -9999 -9999 -9999 -9999 5445 5443 5484 5533 5644 5758 5856 -9999 -9999 -9999 -9999 -9999 -9999 -9999 -9999 -9999 -9999 -9999 -9999 -9999 -9999 -9999 -9999 -9999 -9999 -9999 -9999 -9999 -9999 -9999 -9999 -9999 -9999 -9999 -9999 -9999 -9999 -9999 -9999 -9999 -9999 -9999 -9999 -9999 -9999 -9999 -9999 -9999 -9999 -9999 -9999
-9999 -9999 -9999 -9999 -9999 -9999 -9999 -9999 -9999 -9999 -9999 -9999 -9999 -9999 -9999 -9999 -9999 -9999 -9999 -9999 -9999 -9999 -9999 -9999 -9999 -9999 -9999 -9999 -9999 -9999 -9999 -9999 -9999 -9999 -9999 -9999 -9999 -9999 -9999 -9999 -9999 -9999 -9999 -9999 -9999 -9999 -9999 -9999 -9999 -9999 -9999 -9999 -9999 -9999 -9999 -9999 -9999 -9999 -9999 -9999 -9999 -9999 -9999 -9999 -9999 -9999 2493 2468 2424 2378 2404 2446 2493 2493 2532 2521 2463 2416 2393 2395 2365 2366 2381 2371 2375 2375 2384 2327 2178 2178 2064 1982 1920 1867 1861 1873 1857 1789 1724 1682 1619 1567 1560 1583 1579 1579 1588 1590 1511 1405 1331 1348 1405 1456 1486 1445 1393 1455 1451 1476 1517 1517 1600 1676 1629 1533 1457 1384 1346 1489 1586 1531 1496 1508 1438 1348 1300 1300 1254 1280 1306 1362 1364 1378 1413 1480 1513 1519 1509 1533 1576 1585 1573 1573 1562 1632 1825 1949 2027 2125 2265 2384 2407 2417 2526 2598 2616 2503 2386 2386 2308 2363 2447 2542 2668 2781 2779 2856 2892 2883 2908 2956 2962 3038 3073 3073 3007 2877 2708 2542 2408 2448 2582 2679 2811 2819 2738 2662 2576 2514 2431 2431 2296 2189 2156 2151 2154 2243 2350 2460 2570 2670 2717 2781 2920 3083 3224 3224 3336 3399 3503 3639 3823 3906 3920 3913 3853 3790 3806 3759 3659 3555 3472 3472 3431 3352 3227 3034 2870 2939 3028 3027 2981 3015 3137 3287 3423 3557 3659 3659 3727 3721 3683 3686 3756 3928 4127 4153 4420 4514 4380 4200 4047 3955 3931 3931 3915 3930 3985 4012 4084 4212 4379 4552 4694 4755 4720 4670 4659 4684 4613 4613 4523 4530 4550 4526 4552 4607 4745 4928 5085 5146 5019 4891 4798 4703 4626 4626 4592 4640 4637 4470 4292 4217 4209 4250 4366 4481 4489 4449 4436 4466 4411 4411 4352 4293 4283 4312 4340 4470 4631 4786 4883 4919 4970 5024 5102 5159 5175 -9999 -9999 -9999 -9999 -9999 -9999 5571 5644 5708 -9999 -9999 -9999 -9999 -9999 -9999 -9999 -9999 -9999 -9999 -9999 -9999 -9999 -9999 -9999 -9999 -9999 -9999 -9999 -9999 -9999 -9999 -9999 -9999 -9999 -9999 -9999 -9999 -9999 -9999 -9999 -9999 -9999 -9999 -9999 -9999 -9999 -9999 -9999 -9999 -9999 -9999 -9999 -9999 -9999 -9999
-9999 -9999 -9999 -9999 -9999 -9999 -9999 -9999 -9999 -9999 -9999 -9999 -9999 -9999 -9999 -9999 -9999 -9999 -9999 -9999 -9999 -9999 -9999 -9999 -9999 -9999 -9999 -9999 -9999 -9999 -9999 -9999 -9999 -9999 -9999 -9999 -9999 -9999 -9999 -9999 -9999 -9999 -9999 -9999 -9999 -9999 -9999 -9999 -9999 -9999 -9999 -9999 -9999 -9999 -9999 -9999 -9999 -9999 -9999 -9999 -9999 -9999 -9999 -9999 -9999 -9999 2461 2426 2381 2348 2382 2412 2437 2437 2460 2472 2453 2411 2379 2350 2345 2346 2336 2323 2331 2343 2382 2356 2229 2229 2111 2006 1943 1921 1900 1919 1927 1868 1791 1699 1659 1622 1562 1501 1460 1460 1437 1431 1390 1335 1296 1278 1307 1357 1438 1426 1346 1372 1426 1481 1507 1507 1538 1594 1543 1457 1401 1342 1300 1423 1462 1393 1363 1379 1382 1326 1248 1248 1262 1333 1439 1437 1420 1433 1470 1501 1531 1578 1602 1604 1583 1608 1644 1644 1687 1831 2009 2089 2131 2188 2290 2405 2513 2526 2562 2662 2680 2565 2450 2450 2416 2488 2570 2657 2765 2888 2902 2933 3052 3110 3131 3185 3133 3155 3184 3184 3096 2912 2701 2508 2451 2573 2732 2854 2935 2901 2825 2749 2704 2631 2525 2525 2411 2278 2231 2240 2205 2279 2311 2378 2464 2542 2614 2694 2802 2959 3068 3068 3154 3296 3416 3576 3713 3797 3789 3809 3918 3912 3931 3888 3761 3625 3520 3520 3435 3318 3182 3025 2962 3052 3166 3183 3110 3088 3135 3252 3371 3488 3586 3586 3728 3870 3857 3789 3828 3916 4116 4084 4332 4527 4432 4234 4065 3979 3979 3979 3999 4008 4031 4051 4096 4185 4336 4515 4708 4746 4634 4576 4541 4544 4501 4501 4450 4425 4426 4457 4496 4596 4714 4878 5050 5088 4919 4751 4688 4725 4737 4737 4730 4756 4669 4510 4331 4275 4309 4350 4459 4604 4663 4619 4611 4604 4504 4504 4387 4315 4289 4320 4373 4435 4574 4722 4819 4873 4915 4968 5037 5081 5109 -9999 -9999 -9999 -9999 -9999 -9999 -9999 -9999 -9999 -9999 -9999 -9999 -9999 -9999 -9999 -9999 -9999 -9999 -9999 -9999 -9999 -9999 -9999 -9999 -9999 -9999 -9999 -9999 -9999 -9999 -9999 -9999 -9999 -9999 -9999 -9999 -9999 -9999 -9999 -9999 -9999 -9999 -9999 -9999 -9999 -9999 -9999 -9999 -9999 -9999 -9999 -9999 -9999 -9999 -9999
-9999 -9999 -9999 -9999 -9999 -9999 -9999 -9999 -9999 -9999 -9999 -9999 -9999 -9999 -9999 -9999 -9999 -9999 -9999 -9999 -9999 -9999 -9999 -9999 -9999 -9999 -9999 -9999 -9999 -9999 -9999 -9999 -9999 -9999 -9999 -9999 -9999 -9999 -9999 -9999 -9999 -9999 -9999 -9999 -9999 -9999 -9999 -9999 -9999 -9999 -9999 -9999 -9999 -9999 -9999 -9999 -9999 -9999 -9999 -9999 -9999 -9999 -9999 -9999 -9999 -9999 2377 2377 2343 2309 2363 2377 2379 2379 2418 2436 2439 2420 2406 2367 2312 2299 2285 2292 2301 2326 2375 2309 2171 2171 2068 1998 1970 1928 1897 1924 1984 1973 1886 1829 1794 1732 1672 1591 1501 1501 1446 1401 1379 1361 1351 1305 1244 1288 1367 1371 1314 1383 1442 1476 1448 1448 1427 1450 1415 1390 1317 1270 1252 1346 1308 1263 1221 1242 1253 1250 1242 1242 1305 1439 1526 1523 1499 1476 1497 1539 1606 1684 1688 1676 1647 1677 1739 1739 1876 2048 2167 2264 2288 2255 2306 2370 2502 2619 2673 2726 2754 2662 2569 2569 2552 2619 2701 2786 2894 3011 3018 3002 3098 3198 3315 3352 3313 3284 3226 3226 3145 2926 2667 2494 2511 2668 2831 2970 3059 2994 2905 2859 2797 2718 2639 2639 2521 2378 2329 2295 2271 2396 2445 2436 2478 2543 2608 2684 2776 2874 2969 2969 3067 3210 3334 3460 3583 3661 3795 3820 3882 4007 4080 4006 3829 3653 3498 3498 3378 3271 3175 3073 3045 3139 3275 3341 3257 3188 3188 3244 3329 3417 3512 3512 3640 3823 3940 3906 3913 3981 4109 4062 4220 4447 4474 4271 4119 4052 4054 4054 4054 4069 4089 4101 4126 4203 4343 4496 4642 4754 4682 4580 4527 4505 4475 4475 4414 4393 4394 4411 4466 4607 4729 4857 4990 4970 4813 4659 4603 4596 4573 4573 4587 4680 4659 4520 4388 4340 4403 4499 4602 4719 4823 4784 4763 4693 4540 4540 4397 4339 4318 4357 4441 4476 4566 4689 4792 4846 4883 4927 5008 5042 5071 -9999 -9999 -9999 -9999 -9999 -9999 -9999 -9999 -9999 -9999 -9999 -9999 -9999 -9999 -9999 -9999 -9999 -9999 -9999 -9999 -9999 -9999 -9999 -9999 -9999 -9999 -9999 -9999 -9999 -9999 -9999 -9999 -9999 -9999 -9999 -9999 -9999 -9999 -9999 -9999 -9999 -9999 -9999 -9999 -9999 -9999 -9999 -9999 -9999 -9999 -9999 -9999 -9999 -9999 -9999
-9999 -9999 -9999 -9999 -9999 -9999 -9999 -9999 -9999 -9999 -9999 -9999 -9999 -9999 -9999 -9999 -9999 -9999 -9999 -9999 -9999 -9999 -9999 -9999 -9999 -9999 -9999 -9999 -9999 -9999 -9999 -9999 -9999 -9999 -9999 -9999 -9999 -9999 -9999 -9999 -9999 -9999 -9999 -9999 -9999 -9999 -9999 -9999 -9999 -9999 -9999 -9999 -9999 -9999 -9999 -9999 -9999 -9999 -9999 -9999 -9999 -9999 -9999 -9999 -9999 -9999 2300 2286 2269 2236 2304 2347 2340 2340 2363 2387 2425 2422 2417 2353 2286 2223 2234 2258 2258 2302 2346 2283 2139 2139 2022 1937 1891 1866 1849 1871 1895 1937 1948 1950 1926 1874 1806 1714 1625 1625 1579 1539 1504 1450 1398 1330 1239 1223 1282 1285 1316 1384 1398 1393 1330 1330 1291 1305 1275 1256 1201 1193 1205 1222 1229 1253 1296 1309 1303 1304 1330 1330 1385 1504 1601 1618 1592 1537 1561 1627 1688 1714 1718 1723 1735 1791 1881 1881 2069 2225 2340 2427 2460 2398 2431 2444 2489 2608 2731 2816 2846 2785 2712 2712 2736 2779 2846 2936 3035 3149 3113 3089 3192 3285 3368 3467 3440 3376 3231 3231 3122 2864 2612 2521 2593 2748 2882 3038 3151 3081 3005 2924 2847 2785 2698 2698 2613 2518 2427 2360 2320 2451 2565 2538 2565 2660 2687 2760 2830 2920 2966 2966 3057 3179 3298 3412 3524 3609 3767 3897 3935 3965 4056 4053 3882 3697 3556 3556 3448 3394 3310 3167 3111 3178 3332 3434 3383 3318 3312 3315 3352 3422 3514 3514 3637 3764 3878 3976 3966 4019 4126 4071 4203 4387 4501 4396 4258 4167 4121 4121 4119 4096 4099 4110 4138 4200 4331 4477 4623 4800 4816 4688 4553 4460 4430 4430 4382 4368 4365 4372 4406 4490 4614 4715 4790 4836 4796 4663 4598 4559 4529 4529 4492 4532 4648 4532 4413 4412 4485 4613 4741 4856 4875 4813 4737 4628 4500 4500 4426 4381 4355 4398 4518 4541 4570 4661 4774 4843 4901 4940 4991 5016 5058 -9999 -9999 -9999 -9999 -9999 -9999 -9999 -9999 -9999 -9999 -9999 -9999 -9999 -9999 -9999 -9999 -9999 -9999 -9999 -9999 -9999 -9999 -9999 -9999 -9999 -9999 -9999 -9999 -9999 -9999 -9999 -9999 -9999 -9999 -9999 -9999 -9999 -9999 -9999 -9999 -9999 -9999 -9999 -9999 -9999 -9999 -9999 -9999 -9999 -9999 -9999 -9999 -9999 -9999 -9999
-9999 -9999 -9999 -9999 -9999 -9999 -9999 -9999 -9999 -9999 -9999 -9999 -9999 -9999 -9999 -9999 -9999 -9999 -9999 -9999 -9999 -9999 -9999 -9999 -9999 -9999 -9999 -9999 -9999 -9999 -9999 -9999 -9999 -9999 -9999 -9999 -9999 -9999 -9999 -9999 -9999 -9999 -9999 -9999 -9999 -9999 -9999 -9999 -9999 -9999 -9999 -9999 -9999 -9999 -9999 -9999 -9999 -9999 -9999 -9999 -9999 -9999 -9999 -9999 -9999 -9999 -9999 2168 2160 2133 2203 2295 2279 2279 2292 2330 2386 2393 2407 2354 2270 2162 2131 2181 2147 2199 2281 2270 2146 2146 2032 1947 1886 1822 1799 1773 1776 1825 1879 1938 1944 1926 1905 1834 1748 1748 1668 1658 1611 1496 1378 1293 1211 1218 1253 1292 1319 1265 1246 1253 1228 1228 1208 1206 1202 1195 1202 1252 1266 1298 1325 1346 1377 1400 1401 1406 1470 1470 1545 1563 1629 1651 1649 1612 1586 1643 1703 1764 1778 1783 1813 1869 2061 2061 2191 2368 2525 2612 2615 2565 2559 2584 2575 2638 2716 2835 2937 2916 2898 2898 2903 2937 2996 3082 3185 3270 3216 3165 3243 3354 3464 3485 3368 3253 3109 3109 2971 2716 2579 2601 2693 2824 2966 3158 3231 3147 3050 2968 2889 2816 2754 2754 2682 2589 2490 2389 2376 2470 2598 2670 2683 2767 2832 2870 2969 3038 3044 3044 3092 3263 3378 3437 3506 3608 3714 3818 3929 4008 4037 4073 3949 3779 3644 3644 3527 3426 3340 3243 3185 3184 3225 3360 3448 3458 3470 3469 3457 3514 3634 3634 3733 3851 3929 4001 4055 4083 4164 4133 4201 4321 4470 4508 4399 4295 4241 4241 4270 4223 4185 4192 4213 4256 4356 4507 4646 4801 4781 4641 4492 4413 4383 4383 4353 4350 4334 4335 4343 4358 4387 4466 4574 4709 4802 4751 4666 4564 4496 4496 4468 4462 4506 4590 4484 4453 4508 4597 4734 4854 4864 4797 4695 4595 4501 4501 4448 4406 4413 4498 4620 4698 4712 4719 4785 4887 4941 4958 4977 4998 5029 -9999 -9999 -9999 -9999 -9999 -9999 -9999 -9999 -9999 -9999 -9999 -9999 -9999 -9999 -9999 -9999 -9999 -9999 -9999 -9999 -9999 -9999 -9999 -9999 -9999 -9999 -9999 -9999 -9999 -9999 -9999 -9999 -9999 -9999 -9999 -9999 -9999 -9999 -9999 -9999 -9999 -9999 -9999 -9999 -9999 -9999 -9999 -9999 -9999 -9999 -9999 -9999 -9999 -9999 -9999
-9999 -9999 -9999 -9999 -9999 -9999 -9999 -9999 -9999 -9999 -9999 -9999 -9999 -9999 -9999 -9999 -9999 -9999 -9999 -9999 -9999 -9999 -9999 -9999 -9999 -9999 -9999 -9999 -9999 -9999 -9999 -9999 -9999 -9999 -9999 -9999 -9999 -9999 -9999 -9999 -9999 -9999 -9999 -9999 -9999 -9999 -9999 -9999 -9999 -9999 -9999 -9999 -9999 -9999 -9999 -9999 -9999 -9999 -9999 -9999 -9999 -9999 -9999 -9999 -9999 -9999 -9999 2112 2049 2033 2132 2205 2180 2180 2170 2268 2338 2356 2356 2330 2255 2140 2047 2064 2061 2138 2212 2235 2191 2191 2088 2002 1921 1851 1819 1765 1715 1702 1750 1815 1819 1840 1871 1815 1695 1695 1594 1541 1538 1492 1408 1318 1195 1208 1213 1224 1236 1165 1152 1157 1161 1161 1159 1166 1166 1173 1202 1235 1299 1345 1368 1400 1444 1478 1481 1510 1646 1646 1686 1649 1698 1727 1699 1644 1658 1662 1705 1782 1848 1867 1919 2002 2127 2127 2267 2423 2555 2696 2788 2750 2775 2772 2735 2804 2848 2886 3006 3083 3064 3064 3043 3088 3149 3237 3340 3376 3288 3234 3294 3410 3507 3450 3325 3174 3010 3010 2833 2685 2628 2697 2811 2947 3122 3230 3277 3199 3099 2994 2925 2887 2832 2832 2740 2646 2543 2444 2424 2482 2585 2709 2822 2874 2972 2993 3074 3193 3211 3211 3206 3279 3399 3518 3608 3669 3722 3762 3825 3938 4099 4143 4067 3890 3724 3724 3590 3477 3396 3320 3275 3259 3225 3255 3373 3495 3597 3630 3606 3668 3789 3789 3877 3946 3982 4001 4074 4132 4227 4187 4216 4276 4463 4576 4555 4482 4414 4414 4349 4290 4245 4170 4219 4312 4359 4495 4621 4701 4626 4554 4470 4392 4341 4341 4321 4312 4309 4313 4294 4268 4278 4321 4413 4558 4705 4831 4775 4606 4459 4459 4436 4420 4421 4544 4647 4616 4593 4628 4770 4868 4875 4811 4732 4660 4590 4590 4538 4472 4485 4573 4718 4842 4888 4883 4875 4920 4957 4979 4982 5007 5028 -9999 -9999 -9999 -9999 -9999 -9999 -9999 -9999 -9999 -9999 -9999 -9999 -9999 -9999 -9999 -9999 -9999 -9999 -9999 -9999 -9999 -9999 -9999 -9999 -9999 -9999 -9999 -9999 -9999 -9999 -9999 -9999 -9999 -9999 -9999 -9999 -9999 -9999 -9999 -9999 -9999 -9999 -9999 -9999 -9999 -9999 -9999 -9999 -9999 -9999 -9999 -9999 -9999 -9999 -9999
-9999 -9999 -9999 -9999 -9999 -9999 -9999 -9999 -9999 -9999 -9999 -9999 -9999 -9999 -9999 -9999 -9999 -9999 -9999 -9999 -9999 -9999 -9999 -9999 -9999 -9999 -9999 -9999 -9999 -9999 -9999 -9999 -9999 -9999 -9999 -9999 -9999 -9999 -9999 -9999 -9999 -9999 -9999 -9999 -9999 -9999 -9999 -9999 -9999 -9999 -9999 -9999 -9999 -9999 -9999 -9999 -9999 -9999 -9999 -9999 -9999 -9999 -9999 -9999 -9999 -9999 2143 2107 2016 1952 2025 2076 2060 2060 2045 2164 2256 2262 2245 2265 2218 2153 2055 1966 1997 2099 2160 2182 2188 2188 2136 2031 1933 1880 1863 1831 1771 1670 1649 1712 1742 1789 1806 1758 1618 1618 1482 1383 1378 1361 1292 1274 1180 1148 1149 1155 1155 1154 1166 1177 1185 1185 1202 1248 1234 1235 1313 1345 1408 1412 1428 1464 1495 1522 1559 1654 1793 1793 1780 1768 1783 1771 1729 1693 1720 1737 1757 1810 1880 1959 2076 2163 2184 2184 2280 2458 2590 2736 2889 2949 2928 2957 2926 2933 2994 3048 3120 3231 3234 3234 3230 3286 3336 3404 3483 3486 3369 3301 3333 3452 3473 3347 3241 3125 2936 2936 2767 2693 2711 2826 2961 3079 3222 3330 3336 3242 3125 3063 3026 2971 2888 2888 2796 2709 2612 2510 2484 2537 2624 2730 2851 2970 3082 3158 3176 3276 3389 3389 3406 3378 3395 3440 3526 3632 3707 3765 3864 3895 4039 4147 4050 3858 3731 3731 3612 3487 3378 3373 3457 3459 3347 3294 3350 3451 3564 3658 3707 3784 3889 3889 3953 4025 4091 4120 4187 4193 4259 4222 4314 4310 4419 4535 4620 4541 4412 4412 4257 4176 4117 4082 4127 4195 4263 4434 4548 4506 4338 4264 4265 4316 4349 4349 4320 4289 4281 4275 4218 4203 4196 4225 4293 4437 4589 4739 4748 4580 4420 4420 4377 4373 4373 4443 4607 4734 4685 4709 4841 4897 4917 4878 4731 4662 4631 4631 4595 4540 4553 4622 4762 4900 5003 4999 4968 4963 4979 5014 5037 -9999 -9999 -9999 -9999 -9999 -9999 -9999 -9999 -9999 -9999 -9999 -9999 -9999 -9999 -9999 -9999 -9999 -9999 -9999 -9999 -9999 -9999 -9999 -9999 -9999 -9999 -9999 -9999 -9999 -9999 -9999 -9999 -9999 -9999 -9999 -9999 -9999 -9999 -9999 -9999 -9999 -9999 -9999 -9999 -9999 -9999 -9999 -9999 -9999 -9999 -9999 -9999 -9999 -9999 -9999 -9999 -9999
-9999 -9999 -9999 -9999 -9999 -9999 -9999 -9999 -9999 -9999 -9999 -9999 -9999 -9999 -9999 -9999 -9999 -9999 -9999 -9999 -9999 -9999 -9999 -9999 -9999 -9999 -9999 -9999 -9999 -9999 -9999 -9999 -9999 -9999 -9999 -9999 -9999 -9999 -9999 -9999 -9999 -9999 -9999 -9999 -9999 -9999 -9999 -9999 -9999 -9999 -9999 -9999 -9999 -9999 -9999 -9999 -9999 -9999 -9999 -9999 -9999 -9999 -9999 -9999 -9999 2015 2021 2006 1956 1862 1889 1952 1916 1916 1957 2029 2127 2158 2153 2163 2142 2055 2020 1918 1949 2006 2043 2058 2062 2062 2053 2026 2017 1961 1917 1837 1748 1659 1591 1620 1658 1663 1663 1658 1586 1586 1447 1333 1258 1243 1196 1167 1133 1127 1129 1141 1155 1170 1180 1184 1194 1194 1262 1360 1356 1359 1446 1505 1530 1526 1521 1539 1564 1625 1702 1822 1845 1845 1829 1807 1788 1781 1750 1743 1767 1798 1848 1916 2020 2148 2228 2311 2340 2340 2427 2487 2600 2710 2877 3056 3105 3090 3105 3097 3126 3193 3242 3347 3369 3369 3389 3449 3507 3553 3584 3504 3406 3369 3421 3511 3458 3295 3142 3059 2882 2882 2769 2721 2802 2940 3069 3214 3332 3417 3353 3265 3231 3193 3128 3048 2949 2949 2856 2763 2667 2569 2563 2598 2696 2792 2895 3003 3125 3251 3334 3383 3485 3485 3568 3547 3539 3575 3647 3659 3696 3765 3838 3927 4017 4028 3912 3797 3674 3674 3558 3458 3391 3413 3512 3482 3387 3353 3385 3432 3491 3550 3619 3694 3769 3769 3834 3905 3986 4086 4187 4257 4257 4337 4452 4397 4420 4540 4588 4422 4321 4321 4222 4126 4063 4031 4051 4108 4212 4403 4392 4268 4095 4028 4057 4161 4264 4264 4347 4273 4258 4238 4184 4150 4136 4141 4205 4335 4434 4526 4543 4434 4335 4335 4309 4309 4323 4384 4536 4684 4815 4912 5002 4952 4946 4901 4754 4684 4719 4719 4744 4681 4654 4694 4801 4949 5085 5115 5091 5081 5087 5101 -9999 -9999 -9999 -9999 -9999 -9999 -9999 -9999 -9999 -9999 -9999 -9999 -9999 -9999 -9999 -9999 -9999 -9999 -9999 -9999 -9999 -9999 -9999 -9999 -9999 -9999 -9999 -9999 -9999 -9999 -9999 -9999 -9999 -9999 -9999 -9999 -9999 -9999 -9999 -9999 -9999 -9999 -9999 -9999 -9999 -9999 -9999 -9999 -9999 -9999 -9999 -9999 -9999 -9999 -9999 -9999 -9999 -9999
-9999 -9999 -9999 -9999 -9999 -9999 -9999 -9999 -9999 -9999 -9999 -9999 -9999 -9999 -9999 -9999 -9999 -9999 -9999 -9999 -9999 -9999 -9999 -9999 -9999 -9999 -9999 -9999 -9999 -9999 -9999 -9999 -9999 -9999 -9999 -9999 -9999 -9999 -9999 -9999 -9999 -9999 -9999 -9999 -9999 -9999 -9999 -9999 -9999 -9999 -9999 -9999 -9999 -9999 -9999 -9999 -9999 -9999 -9999 -9999 -9999 -9999 -9999 -9999 -9999 1905 1865 1881 1845 1783 1758 1816 1793 1793 1869 1983 2058 2085 2067 2088 2115 2016 1909 1833 1870 1891 1936 1971 1974 1974 1961 1990 2045 1996 1928 1848 1789 1713 1593 1524 1550 1560 1577 1597 1496 1496 1398 1316 1230 1169 1147 1128 1124 1149 1167 1188 1219 1198 1195 1202 1211 1211 1304 1371 1387 1424 1468 1548 1646 1681 1637 1625 1665 1756 1876 1911 1867 1867 1860 1871 1868 1856 1818 1814 1855 1919 1996 2092 2222 2322 2364 2434 2554 2554 2643 2662 2781 2877 2896 3022 3152 3205 3236 3248 3264 3310 3367 3464 3512 3512 3526 3583 3647 3695 3625 3527 3483 3516 3602 3615 3458 3288 3145 3014 2869 2869 2777 2773 2930 3098 3237 3333 3431 3480 3408 3392 3370 3319 3237 3118 2996 2996 2890 2808 2730 2640 2623 2652 2712 2819 2944 3047 3150 3269 3362 3462 3609 3609 3735 3801 3833 3830 3847 3808 3797 3878 3939 4029 4170 4156 3975 3790 3653 3653 3559 3491 3455 3503 3579 3514 3448 3437 3438 3448 3471 3512 3556 3616 3678 3678 3726 3783 3858 3949 4015 4123 4228 4258 4413 4512 4558 4680 4628 4464 4306 4306 4197 4118 4015 3987 4014 4065 4198 4300 4164 4067 3923 3888 3944 4035 4144 4144 4270 4268 4233 4212 4154 4111 4099 4084 4077 4153 4292 4431 4481 4369 4304 4304 4292 4289 4301 4375 4543 4711 4862 5057 5104 5015 4972 4943 4849 4812 4861 4861 4921 4872 4806 4757 4799 4937 5096 5209 5220 5208 5172 -9999 -9999 -9999 -9999 -9999 -9999 -9999 -9999 -9999 -9999 -9999 -9999 -9999 -9999 -9999 -9999 -9999 -9999 -9999 -9999 -9999 -9999 -9999 -9999 -9999 -9999 -9999 -9999 -9999 -9999 -9999 -9999 -9999 -9999 -9999 -9999 -9999 -9999 -9999 -9999 -9999 -9999 -9999 -9999 -9999 -9999 -9999 -9999 -9999 -9999 -9999 -9999 -9999 -9999 -9999 -9999 -9999 -9999 -9999
-9999 -9999 -9999 -9999 -9999 -9999 -9999 -9999 -9999 -9999 -9999 -9999 -9999 -9999 -9999 -9999 -9999 -9999 -9999 -9999 -9999 -9999 -9999 -9999 -9999 -9999 -9999 -9999 -9999 -9999 -9999 -9999 -9999 -9999 -9999 -9999 -9999 -9999 -9999 -9999 -9999 -9999 -9999 -9999 -9999 -9999 -9999 -9999 -9999 -9999 -9999 -9999 -9999 -9999 -9999 -9999 -9999 -9999 -9999 -9999 -9999 -9999 -9999 -9999 -9999 1862 1764 1768 1747 1699 1650 1696 1700 1700 1830 1908 1923 2012 1995 1993 2066 2037 1924 1792 1769 1800 1856 1907 1905 1905 1936 1959 1935 1908 1955 1916 1844 1756 1645 1515 1457 1471 1458 1484 1436 1436 1327 1252 1209 1154 1115 1129 1146 1161 1191 1234 1311 1300 1256 1261 1274 1274 1277 1319 1340 1393 1456 1525 1620 1765 1842 1812 1886 1974 1983 1947 1911 1911 1929 1986 1971 1933 1914 1958 2038 2119 2188 2250 2318 2432 2557 2630 2693 2693 2811 2829 2946 3094 3118 3143 3204 3308 3335 3380 3401 3447 3513 3564 3630 3630 3676 3726 3771 3704 3615 3589 3608 3687 3731 3638 3465 3292 3147 3023 2886 2886 2788 2798 3038 3183 3319 3440 3535 3567 3530 3516 3469 3356 3236 3123 3022 3022 2931 2842 2759 2710 2716 2735 2749 2788 2871 2964 3078 3178 3288 3400 3538 3538 3715 3916 4051 4040 3919 3883 3925 4052 4042 4134 4298 4309 4103 3871 3730 3730 3656 3590 3558 3626 3669 3578 3502 3454 3444 3446 3472 3502 3537 3599 3639 3639 3680 3737 3814 3904 3975 4058 4172 4165 4292 4431 4622 4708 4580 4435 4301 4301 4155 4049 3961 3950 3984 4057 4153 4047 3926 3857 3822 3829 3881 3948 4022 4022 4153 4274 4220 4174 4149 4100 4066 4038 4009 4001 4100 4278 4361 4260 4243 4243 4260 4273 4291 4388 4536 4698 4887 5046 5052 4984 4912 4781 4785 4860 4925 4925 4961 4972 4882 4824 4856 4974 5114 5257 5326 -9999 -9999 -9999 -9999 -9999 -9999 -9999 -9999 -9999 -9999 -9999 -9999 -9999 -9999 -9999 -9999 -9999 -9999 -9999 -9999 -9999 -9999 -9999 -9999 -9999 -9999 -9999 -9999 -9999 -9999 -9999 -9999 -9999 -9999 -9999 -9999 -9999 -9999 -9999 -9999 -9999 -9999 -9999 -9999 -9999 -9999 -9999 -9999 -9999 -9999 -9999 -9999 -9999 -9999 -9999 -9999 -9999 -9999 -9999 -9999 -9999
-9999 -9999 -9999 -9999 -9999 -9999 -9999 -9999 -9999 -9999 -9999 -9999 -9999 -9999 -9999 -9999 -9999 -9999 -9999 -9999 -9999 -9999 -9999 -9999 -9999 -9999 -9999 -9999 -9999 -9999 -9999 -9999 -9999 -9999 -9999 -9999 -9999 -9999 -9999 -9999 -9999 -9999 -9999 -9999 -9999 -9999 -9999 -9999 -9999 -9999 -9999 -9999 -9999 -9999 -9999 -9999 -9999 -9999 -9999 -9999 -9999 -9999 -9999 -9999 -9999 1866 1757 1678 1640 1615 1574 1588 1646 1646 1753 1764 1807 1907 1933 1886 1931 1935 1909 1781 1698 1746 1818 1845 1869 1869 1907 1858 1804 1797 1877 1880 1746 1650 1566 1504 1418 1375 1311 1368 1436 1436 1363 1316 1270 1209 1111 1138 1154 1207 1255 1267 1302 1384 1388 1391 1382 1382 1325 1286 1304 1338 1407 1476 1573 1707 1847 1935 1994 2001 2013 2016 1978 1978 1953 2015 2066 2084 2083 2117 2224 2301 2338 2376 2430 2528 2641 2789 2869 2869 2967 3014 3100 3236 3312 3337 3389 3443 3465 3522 3553 3590 3656 3703 3747 3747 3816 3864 3840 3735 3693 3683 3764 3836 3831 3677 3502 3352 3197 3057 2913 2913 2806 2821 3007 3189 3331 3444 3501 3561 3638 3616 3533 3422 3292 3180 3061 3061 2959 2884 2817 2811 2846 2884 2882 2885 2921 2977 3046 3139 3243 3359 3494 3494 3653 3833 4024 4056 3944 3935 4007 4176 4140 4109 4251 4350 4190 4014 3868 3868 3770 3710 3691 3743 3790 3694 3588 3504 3465 3450 3484 3540 3563 3594 3635 3635 3676 3730 3820 3905 3966 4041 4158 4119 4220 4376 4609 4671 4469 4314 4186 4186 4062 3968 3912 3920 3964 4013 3951 3859 3789 3762 3773 3790 3839 3860 3897 3897 4042 4220 4273 4204 4167 4120 4089 4019 3959 3937 3971 4074 4161 4167 4208 4208 4239 4262 4294 4411 4573 4783 4969 5035 4920 4813 4600 4479 4526 4647 4751 4751 4774 4878 4951 4926 4959 5058 5182 5301 5407 -9999 -9999 -9999 -9999 -9999 -9999 -9999 -9999 -9999 -9999 -9999 -9999 -9999 -9999 -9999 -9999 -9999 -9999 -9999 -9999 -9999 -9999 -9999 -9999 -9999 -9999 -9999 -9999 -9999 -9999 -9999 -9999 -9999 -9999 -9999 -9999 -9999 -9999 -9999 -9999 -9999 -9999 -9999 -9999 -9999 -9999 -9999 -9999 -9999 -9999 -9999 -9999 -9999 -9999 -9999 -9999 -9999 -9999 -9999 -9999 -9999
-9999 -9999 -9999 -9999 -9999 -9999 -9999 -9999 -9999 -9999 -9999 -9999 -9999 -9999 -9999 -9999 -9999 -9999 -9999 -9999 -9999 -9999 -9999 -9999 -9999 -9999 -9999 -9999 -9999 -9999 -9999 -9999 -9999 -9999 -9999 -9999 -9999 -9999 -9999 -9999 -9999 -9999 -9999 -9999 -9999 -9999 -9999 -9999 -9999 -9999 -9999 -9999 -9999 -9999 -9999 -9999 -9999 -9999 -9999 -9999 -9999 -9999 -9999 -9999 -9999 1869 1778 1701 1636 1580 1523 1525 1581 1581 1623 1629 1724 1814 1843 1788 1782 1792 1825 1736 1654 1695 1771 1807 1842 1842 1804 1739 1675 1711 1776 1690 1594 1520 1439 1442 1381 1274 1221 1305 1389 1389 1369 1360 1297 1197 1108 1136 1175 1233 1287 1343 1392 1420 1466 1451 1410 1410 1405 1381 1356 1322 1362 1427 1489 1570 1715 1821 1841 1879 1961 2042 2060 2060 2008 2035 2130 2229 2281 2326 2371 2438 2474 2518 2574 2637 2732 2866 2997 2997 3130 3218 3273 3383 3462 3487 3520 3591 3606 3652 3679 3734 3794 3833 3881 3881 3926 3973 3876 3775 3760 3800 3919 3932 3839 3697 3551 3406 3243 3076 2943 2943 2835 2846 3003 3185 3310 3406 3486 3531 3598 3663 3583 3479 3351 3232 3123 3123 3057 2975 2898 2908 2972 3021 3049 3012 2999 3045 3115 3177 3235 3355 3466 3466 3577 3732 3962 4072 3997 3982 4051 4227 4267 4225 4275 4401 4315 4137 4015 4015 3903 3847 3852 3888 3921 3798 3662 3554 3498 3485 3513 3607 3686 3714 3745 3745 3737 3750 3832 3961 4029 4065 4170 4109 4205 4367 4548 4537 4360 4216 4103 4103 3988 3915 3878 3872 3872 3808 3767 3733 3732 3721 3724 3738 3759 3799 3848 3848 3951 4093 4254 4300 4207 4147 4116 4035 3933 3898 3928 3989 4050 4111 4186 4186 4240 4310 4413 4536 4638 4838 4976 4882 4712 4556 4327 4255 4363 4448 4542 4542 4600 4730 4843 4956 5061 5158 5266 5374 5456 -9999 -9999 -9999 -9999 -9999 -9999 -9999 -9999 -9999 -9999 -9999 -9999 -9999 -9999 -9999 -9999 -9999 -9999 -9999 -9999 -9999 -9999 -9999 -9999 -9999 -9999 -9999 -9999 -9999 -9999 -9999 -9999 -9999 -9999 -9999 -9999 -9999 -9999 -9999 -9999 -9999 -9999 -9999 -9999 -9999 -9999 -9999 -9999 -9999 -9999 -9999 -9999 -9999 -9999 -9999 -9999 -9999 -9999 -9999 -9999 -9999
-9999 -9999 -9999 -9999 -9999 -9999 -9999 -9999 -9999 -9999 -9999 -9999 -9999 -9999 -9999 -9999 -9999 -9999 -9999 -9999 -9999 -9999 -9999 -9999 -9999 -9999 -9999 -9999 -9999 -9999 -9999 -9999 -9999 -9999 -9999 -9999 -9999 -9999 -9999 -9999 -9999 -9999 -9999 -9999 -9999 -9999 -9999 -9999 -9999 -9999 -9999 -9999 -9999 -9999 -9999 -9999 -9999 -9999 -9999 -9999 -9999 -9999 -9999 -9999 -9999 1800 1706 1687 1647 1564 1488 1468 1494 1494 1511 1560 1650 1719 1767 1728 1668 1678 1711 1658 1618 1679 1740 1798 1786 1786 1695 1633 1579 1621 1602 1497 1468 1419 1347 1317 1251 1171 1163 1241 1265 1265 1238 1226 1216 1141 1118 1160 1211 1247 1312 1374 1422 1453 1483 1500 1463 1463 1459 1453 1438 1375 1359 1362 1406 1506 1603 1663 1726 1860 1965 2044 2099 2099 2089 2060 2105 2179 2272 2370 2460 2543 2640 2702 2734 2771 2852 3016 3118 3118 3197 3267 3349 3456 3545 3583 3552 3611 3692 3749 3784 3786 3756 3788 3822 3822 3828 3971 3962 3843 3823 3863 3922 3784 3665 3574 3492 3371 3220 3084 2962 2962 2878 2886 2999 3127 3241 3350 3472 3539 3586 3640 3609 3516 3428 3352 3248 3248 3155 3051 2992 3013 3095 3162 3203 3154 3088 3100 3175 3275 3302 3366 3428 3428 3527 3686 3906 4062 4104 4097 4127 4226 4327 4401 4439 4424 4358 4302 4231 4231 4074 4005 4027 4069 4032 3857 3702 3589 3528 3524 3556 3622 3728 3831 3872 3872 3868 3816 3845 3954 4085 4142 4169 4199 4279 4328 4368 4329 4304 4188 4056 4056 3959 3886 3845 3808 3791 3744 3696 3679 3688 3683 3683 3691 3717 3762 3824 3824 3912 4037 4200 4303 4267 4202 4097 4017 3897 3876 3917 3952 4001 4131 4267 4267 4370 4456 4605 4719 4816 4921 4861 4668 4473 4355 4099 4071 4175 4241 4350 4350 4441 4578 4696 4823 4915 5033 5164 5256 5391 -9999 -9999 -9999 -9999 -9999 -9999 -9999 -9999 -9999 -9999 -9999 -9999 -9999 -9999 -9999 -9999 -9999 -9999 -9999 -9999 -9999 -9999 -9999 -9999 -9999 -9999 -9999 -9999 -9999 -9999 -9999 -9999 -9999 -9999 -9999 -9999 -9999 -9999 -9999 -9999 -9999 -9999 -9999 -9999 -9999 -9999 -9999 -9999 -9999 -9999 -9999 -9999 -9999 -9999 -9999 -9999 -9999 -9999 -9999 -9999 -9999
-9999 -9999 -9999 -9999 -9999 -9999 -9999 -9999 -9999 -9999 -9999 -9999 -9999 -9999 -9999 -9999 -9999 -9999 -9999 -9999 -9999 -9999 -9999 -9999 -9999 -9999 -9999 -9999 -9999 -9999 -9999 -9999 -9999 -9999 -9999 -9999 -9999 -9999 -9999 -9999 -9999 -9999 -9999 -9999 -9999 -9999 -9999 -9999 -9999 -9999 -9999 -9999 -9999 -9999 -9999 -9999 -9999 -9999 -9999 -9999 -9999 -9999 -9999 -9999 1891 1800 1706 1687 1647 1564 1488 1468 1494 1494 1511 1560 1650 1719 1767 1728 1668 1678 1711 1658 1618 1679 1740 1798 1786 1786 1695 1633 1579 1621 1602 1497 1468 1419 1347 1317 1251 1171 1163 1241 1265 1265 1238 1226 1216 1141 1118 1160 1211 1247 1312 1374 1422 1453 1483 1500 1463 1463 1459 1453 1438 1375 1359 1362 1406 1506 1603 1663 1726 1860 1965 2044 2099 2099 2089 2060 2105 2179 2272 2370 2460 2543 2640 2702 2734 2771 2852 3016 3118 3118 3197 3267 3349 3456 3545 3583 3552 3611 3692 3749 3784 3786 3756 3788 3822 3822 3828 3971 3962 3843 3823 3863 3922 3784 3665 3574 3492 3371 3220 3084 2962 2962 2878 2886 2999 3127 3241 3350 3472 3539 3586 3640 3609 3516 3428 3352 3248 3248 3155 3051 2992 3013 3095 3162 3203 3154 3088 3100 3175 3275 3302 3366 3428 3428 3527 3686 3906 4062 4104 4097 4127 4226 4327 4401 4439 4424 4358 4302 4231 4231 4074 4005 4027 4069 4032 3857 3702 3589 3528 3524 3556 3622 3728 3831 3872 3872 3868 3816 3845 3954 4085 4142 4169 4199 4279 4328 4368 4329 4304 4188 4056 4056 3959 3886 3845 3808 3791 3744 3696 3679 3688 3683 3683 3691 3717 3762 3824 3824 3912 4037 4200 4303 4267 4202 4097 4017 3897 3876 3917 3952 4001 4131 4267 4267 4370 4456 4605 4719 4816 4921 4861 4668 4473 4355 4099 4071 4175 4241 4350 4350 4441 4578 4696 4823 4915 5033 5164 5256 5391 -9999 -9999 -9999 -9999 -9999 -9999 -9999 -9999 -9999 -9999 -9999 -9999 -9999 -9999 -9999 -9999 -9999 -9999 -9999 -9999 -9999 -9999 -9999 -9999 -9999 -9999 -9999 -9999 -9999 -9999 -9999 -9999 -9999 -9999 -9999 -9999 -9999 -9999 -9999 -9999 -9999 -9999 -9999 -9999 -9999 -9999 -9999 -9999 -9999 -9999 -9999 -9999 -9999 -9999 -9999 -9999 -9999 -9999 -9999 -9999 -9999
-9999 -9999 -9999 -9999 -9999 -9999 -9999 -9999 -9999 -9999 -9999 -9999 -9999 -9999 -9999 -9999 -9999 -9999 -9999 -9999 -9999 -9999 -9999 -9999 -9999 -9999 -9999 -9999 -9999 -9999 -9999 -9999 -9999 -9999 -9999 -9999 -9999 -9999 -9999 -9999 -9999 -9999 -9999 -9999 -9999 -9999 -9999 -9999 -9999 -9999 -9999 -9999 -9999 -9999 -9999 -9999 -9999 -9999 -9999 -9999 -9999 -9999 -9999 -9999 1808 1740 1647 1576 1562 1529 1499 1439 1408 1408 1439 1500 1587 1681 1697 1679 1633 1593 1621 1580 1625 1708 1752 1796 1746 1746 1653 1555 1501 1537 1490 1398 1361 1355 1298 1231 1160 1115 1131 1138 1146 1146 1119 1105 1120 1101 1128 1200 1263 1327 1376 1440 1488 1504 1524 1569 1531 1531 1513 1501 1466 1441 1440 1423 1402 1445 1507 1570 1702 1817 1888 1921 1993 1993 2093 2130 2151 2173 2219 2312 2405 2506 2649 2743 2794 2855 2948 3023 3042 3042 3122 3215 3291 3376 3481 3510 3478 3511 3550 3629 3718 3671 3658 3661 3688 3688 3799 3857 3907 3908 3875 3931 3937 3744 3628 3519 3436 3338 3207 3094 2988 2988 2894 2891 3015 3159 3267 3374 3502 3602 3652 3707 3678 3606 3543 3440 3325 3325 3214 3117 3082 3112 3194 3302 3343 3278 3197 3213 3267 3342 3373 3425 3450 3450 3545 3608 3710 3835 3935 4061 4049 4055 4157 4296 4249 4122 4058 4129 4251 4251 4262 4185 4119 4045 3940 3798 3701 3640 3566 3574 3597 3632 3736 3857 3941 3941 3976 3892 3864 3933 4037 4160 4142 4270 4233 4131 4085 4077 4119 4097 3974 3974 3899 3850 3806 3800 3743 3689 3658 3649 3645 3644 3644 3642 3671 3734 3798 3798 3892 4012 4159 4307 4336 4214 4050 3942 3866 3844 3880 3927 3997 4157 4317 4317 4437 4516 4669 4808 4904 4808 4704 4446 4271 4120 3964 3955 3973 4068 4188 4188 4314 4469 4555 4667 4734 4831 4966 5109 -9999 -9999 -9999 -9999 -9999 -9999 -9999 -9999 -9999 -9999 -9999 -9999 -9999 -9999 -9999 -9999 -9999 -9999 -9999 -9999 -9999 -9999 -9999 -9999 -9999 -9999 -9999 -9999 -9999 -9999 -9999 -9999 -9999 -9999 -9999 -9999 -9999 -9999 -9999 -9999 -9999 -9999 -9999 -9999 -9999 -9999 -9999 -9999 -9999 -9999 -9999 -9999 -9999 -9999 -9999 -9999 -9999 -9999 -9999 -9999 -9999 -9999
-9999 -9999 -9999 -9999 -9999 -9999 -9999 -9999 -9999 -9999 -9999 -9999 -9999 -9999 -9999 -9999 -9999 -9999 -9999 -9999 -9999 -9999 -9999 -9999 -9999 -9999 -9999 -9999 -9999 -9999 -9999 -9999 -9999 -9999 -9999 -9999 -9999 -9999 -9999 -9999 -9999 -9999 -9999 -9999 -9999 -9999 -9999 -9999 -9999 -9999 -9999 -9999 -9999 -9999 -9999 -9999 -9999 -9999 -9999 -9999 -9999 -9999 -9999 1850 1734 1639 1613 1539 1493 1498 1440 1418 1368 1368 1411 1470 1532 1570 1609 1680 1657 1567 1542 1528 1580 1639 1697 1743 1701 1701 1614 1530 1440 1421 1394 1321 1279 1253 1210 1139 1111 1089 1087 1079 1084 1084 1091 1104 1115 1138 1146 1224 1301 1344 1396 1431 1508 1566 1595 1665 1615 1615 1603 1547 1509 1500 1498 1492 1462 1440 1450 1493 1586 1679 1776 1855 1940 1940 2014 2046 2117 2207 2295 2315 2380 2469 2593 2638 2704 2778 2840 2895 2980 2980 3084 3182 3288 3402 3451 3370 3380 3417 3463 3533 3621 3619 3640 3634 3642 3642 3718 3781 3848 3928 3980 4057 3979 3828 3672 3553 3457 3371 3270 3158 3025 3025 2918 2910 3013 3148 3250 3342 3489 3650 3752 3826 3800 3723 3626 3532 3418 3418 3284 3193 3182 3224 3310 3400 3451 3375 3309 3344 3404 3450 3469 3505 3511 3511 3549 3616 3675 3742 3776 3853 3925 3955 4016 4001 3885 3761 3756 3842 3971 3971 4089 4102 4042 3914 3791 3736 3694 3667 3604 3596 3617 3646 3706 3787 3883 3883 3977 4005 3943 3935 4001 4107 4067 4201 4056 3893 3842 3890 3955 4036 3974 3974 3882 3829 3812 3792 3720 3638 3616 3611 3594 3597 3576 3589 3650 3723 3790 3790 3883 4000 4145 4291 4315 4148 4009 3937 3871 3812 3833 3890 3943 4053 4177 4177 4340 4496 4651 4766 4808 4705 4462 4242 4110 3967 3906 3894 3888 3952 4056 4056 4178 4317 4449 4512 4600 4734 4910 5064 -9999 -9999 -9999 -9999 -9999 -9999 -9999 -9999 -9999 -9999 -9999 -9999 -9999 -9999 -9999 -9999 -9999 -9999 -9999 -9999 -9999 -9999 -9999 -9999 -9999 -9999 -9999 -9999 -9999 -9999 -9999 -9999 -9999 -9999 -9999 -9999 -9999 -9999 -9999 -9999 -9999 -9999 -9999 -9999 -9999 -9999 -9999 -9999 -9999 -9999 -9999 -9999 -9999 -9999 -9999 -9999 -9999 -9999 -9999 -9999 -9999 -9999
-9999 -9999 -9999 -9999 -9999 -9999 -9999 -9999 -9999 -9999 -9999 -9999 -9999 -9999 -9999 -9999 -9999 -9999 -9999 -9999 -9999 -9999 -9999 -9999 -9999 -9999 -9999 -9999 -9999 -9999 -9999 -9999 -9999 -9999 -9999 -9999 -9999 -9999 -9999 -9999 -9999 -9999 -9999 -9999 -9999 -9999 -9999 -9999 -9999 -9999 -9999 -9999 -9999 -9999 -9999 -9999 -9999 -9999 -9999 -9999 -9999 -9999 -9999 1817 1706 1596 1528 1517 1465 1448 1437 1358 1323 1323 1380 1400 1422 1495 1555 1633 1629 1555 1466 1452 1539 1571 1607 1654 1635 1635 1598 1554 1433 1303 1268 1233 1205 1188 1132 1085 1067 1077 1080 1106 1152 1152 1184 1220 1252 1260 1244 1249 1312 1345 1382 1428 1500 1594 1676 1757 1752 1752 1705 1631 1583 1592 1608 1596 1554 1572 1589 1524 1512 1566 1657 1740 1815 1815 1893 1972 2053 2141 2281 2394 2427 2476 2552 2629 2693 2749 2825 2939 3075 3075 3173 3265 3356 3381 3276 3225 3265 3351 3406 3506 3546 3543 3569 3584 3612 3612 3643 3691 3750 3818 3921 4022 3918 3811 3692 3586 3489 3373 3261 3148 3040 3040 2951 2926 3016 3161 3304 3392 3473 3602 3721 3778 3859 3827 3725 3606 3510 3510 3389 3296 3308 3347 3417 3524 3563 3491 3424 3467 3546 3601 3630 3619 3617 3617 3662 3764 3821 3862 3854 3857 3901 3914 3870 3860 3769 3666 3605 3598 3643 3643 3726 3791 3894 3879 3814 3761 3719 3679 3647 3633 3637 3667 3715 3780 3849 3849 3929 4035 4083 4005 4007 4087 3957 4065 3905 3732 3650 3732 3827 3957 4028 4028 3945 3873 3847 3774 3676 3640 3588 3569 3558 3541 3525 3550 3621 3691 3776 3776 3876 3992 4125 4275 4328 4155 4011 3920 3864 3794 3788 3832 3894 3972 4113 4113 4272 4400 4532 4659 4718 4590 4321 4107 3974 3890 3865 3863 3862 3891 3951 3951 4053 4202 4297 4387 4513 4638 4816 4962 -9999 -9999 -9999 -9999 -9999 -9999 -9999 -9999 -9999 -9999 -9999 -9999 -9999 -9999 -9999 -9999 -9999 -9999 -9999 -9999 -9999 -9999 -9999 -9999 -9999 -9999 -9999 -9999 -9999 -9999 -9999 -9999 -9999 -9999 -9999 -9999 -9999 -9999 -9999 -9999 -9999 -9999 -9999 -9999 -9999 -9999 -9999 -9999 -9999 -9999 -9999 -9999 -9999 -9999 -9999 -9999 -9999 -9999 -9999 -9999 -9999 -9999
-9999 -9999 -9999 -9999 -9999 -9999 -9999 -9999 -9999 -9999 -9999 -9999 -9999 -9999 -9999 -9999 -9999 -9999 -9999 -9999 -9999 -9999 -9999 -9999 -9999 -9999 -9999 -9999 -9999 -9999 -9999 -9999 -9999 -9999 -9999 -9999 -9999 -9999 -9999 -9999 -9999 -9999 -9999 -9999 -9999 -9999 -9999 -9999 -9999 -9999 -9999 -9999 -9999 -9999 -9999 -9999 -9999 -9999 -9999 -9999 -9999 -9999 -9999 1731 1668 1596 1517 1451 1457 1388 1391 1332 1288 1288 1335 1342 1349 1393 1482 1564 1517 1465 1384 1416 1510 1538 1567 1609 1561 1561 1505 1494 1384 1245 1155 1128 1143 1095 1069 1095 1144 1149 1111 1167 1242 1242 1313 1353 1374 1361 1366 1358 1366 1377 1398 1436 1493 1590 1727 1865 1924 1924 1853 1764 1704 1717 1745 1730 1698 1726 1695 1680 1656 1595 1584 1607 1664 1664 1781 1910 1982 2092 2235 2388 2500 2604 2694 2761 2799 2860 2951 3054 3142 3142 3204 3288 3332 3242 3148 3140 3188 3268 3394 3491 3437 3428 3454 3500 3544 3544 3598 3647 3683 3723 3816 3918 3902 3789 3677 3566 3475 3397 3309 3216 3097 3097 2981 2951 3025 3173 3388 3507 3541 3626 3691 3748 3832 3899 3789 3699 3605 3605 3474 3413 3448 3500 3537 3626 3686 3608 3538 3567 3656 3749 3797 3796 3738 3738 3782 3908 3992 4020 4039 4058 3999 3899 3807 3739 3672 3611 3568 3540 3536 3536 3569 3620 3743 3921 3953 3893 3839 3785 3716 3675 3680 3715 3814 3891 3932 3932 3987 4081 4171 4104 4057 4044 3840 3921 3758 3599 3547 3586 3683 3803 3873 3873 3922 3922 3920 3829 3744 3694 3602 3527 3523 3506 3483 3510 3573 3659 3758 3758 3892 4034 4179 4306 4323 4164 4019 3908 3845 3785 3768 3802 3858 3934 4052 4052 4213 4360 4479 4561 4619 4508 4259 4074 3947 3874 3850 3846 3851 3858 3893 3893 3975 4082 4190 4310 4441 4572 4727 4875 -9999 -9999 -9999 -9999 -9999 -9999 -9999 -9999 -9999 -9999 -9999 -9999 -9999 -9999 -9999 -9999 -9999 -9999 -9999 -9999 -9999 -9999 -9999 -9999 -9999 -9999 -9999 -9999 -9999 -9999 -9999 -9999 -9999 -9999 -9999 -9999 -9999 -9999 -9999 -9999 -9999 -9999 -9999 -9999 -9999 -9999 -9999 -9999 -9999 -9999 -9999 -9999 -9999 -9999 -9999 -9999 -9999 -9999 -9999 -9999 -9999 -9999
-9999 -9999 -9999 -9999 -9999 -9999 -9999 -9999 -9999 -9999 -9999 -9999 -9999 -9999 -9999 -9999 -9999 -9999 -9999 -9999 -9999 -9999 -9999 -9999 -9999 -9999 -9999 -9999 -9999 -9999 -9999 -9999 -9999 -9999 -9999 -9999 -9999 -9999 -9999 -9999 -9999 -9999 -9999 -9999 -9999 -9999 -9999 -9999 -9999 -9999 -9999 -9999 -9999 -9999 -9999 -9999 -9999 -9999 -9999 -9999 -9999 -9999 1759 1631 1571 1506 1475 1419 1371 1344 1356 1336 1271 1271 1269 1282 1294 1315 1384 1452 1423 1322 1318 1435 1527 1537 1576 1593 1525 1525 1440 1358 1306 1202 1101 1056 1062 1091 1164 1215 1248 1269 1178 1152 1239 1239 1347 1451 1485 1479 1457 1467 1468 1458 1470 1494 1546 1632 1734 1904 1992 1992 1976 1931 1876 1844 1827 1796 1792 1756 1730 1736 1708 1680 1664 1658 1646 1646 1714 1862 1963 2066 2191 2321 2422 2512 2649 2671 2735 2822 2879 2952 3021 3021 3100 3169 3202 3133 3074 3111 3175 3268 3388 3397 3329 3295 3330 3411 3480 3480 3536 3597 3647 3690 3739 3847 3926 3833 3727 3596 3509 3444 3385 3310 3175 3175 3039 3007 3057 3169 3365 3612 3716 3726 3741 3796 3878 3944 3852 3747 3658 3658 3566 3557 3597 3645 3678 3708 3695 3679 3642 3682 3721 3798 3815 3840 3839 3839 3889 4009 4180 4209 4240 4194 4038 3909 3848 3783 3677 3556 3498 3498 3494 3494 3501 3586 3694 3849 4017 4051 4014 3908 3760 3688 3708 3764 3897 3996 4051 4051 4079 4114 4129 4044 3927 3873 3730 3804 3663 3537 3488 3491 3569 3635 3685 3685 3735 3814 3921 3885 3792 3736 3637 3518 3475 3463 3451 3464 3522 3617 3741 3741 3902 4061 4235 4380 4350 4206 4056 3926 3833 3782 3751 3765 3812 3876 3987 3987 4132 4270 4352 4409 4530 4480 4267 4101 3978 3877 3839 3830 3839 3840 3873 3873 3920 4017 4134 4257 4389 4529 4682 4812 -9999 -9999 -9999 -9999 -9999 -9999 -9999 -9999 -9999 -9999 -9999 -9999 -9999 -9999 -9999 -9999 -9999 -9999 -9999 -9999 -9999 -9999 -9999 -9999 -9999 -9999 -9999 -9999 -9999 -9999 -9999 -9999 -9999 -9999 -9999 -9999 -9999 -9999 -9999 -9999 -9999 -9999 -9999 -9999 -9999 -9999 -9999 -9999 -9999 -9999 -9999 -9999 -9999 -9999 -9999 -9999 -9999 -9999 -9999 -9999 -9999 -9999
-9999 -9999 -9999 -9999 -9999 -9999 -9999 -9999 -9999 -9999 -9999 -9999 -9999 -9999 -9999 -9999 -9999 -9999 -9999 -9999 -9999 -9999 -9999 -9999 -9999 -9999 -9999 -9999 -9999 -9999 -9999 -9999 -9999 -9999 -9999 -9999 -9999 -9999 -9999 -9999 -9999 -9999 -9999 -9999 -9999 -9999 -9999 -9999 -9999 -9999 -9999 -9999 -9999 -9999 -9999 -9999 -9999 -9999 -9999 -9999 -9999 -9999 -9999 1624 1513 1443 1399 1366 1329 1302 1352 1361 1314 1314 1243 1217 1215 1224 1270 1323 1311 1236 1321 1456 1518 1542 1570 1505 1416 1416 1319 1214 1164 1107 1053 1042 1098 1131 1204 1272 1342 1371 1282 1192 1230 1230 1309 1385 1456 1523 1549 1576 1574 1545 1566 1600 1628 1730 1846 1956 1978 1978 1947 1910 1876 1850 1831 1829 1831 1785 1784 1757 1740 1723 1709 1688 1681 1681 1675 1759 1885 2029 2066 2151 2295 2416 2462 2501 2620 2699 2743 2827 2844 2844 2930 3032 3043 2978 2963 3064 3191 3315 3365 3267 3229 3234 3256 3320 3411 3411 3484 3549 3599 3646 3697 3760 3846 3880 3778 3662 3573 3542 3516 3388 3263 3263 3151 3086 3135 3239 3363 3539 3704 3791 3808 3832 3901 3941 3833 3746 3698 3698 3630 3617 3617 3670 3681 3619 3596 3600 3601 3619 3627 3667 3707 3797 3935 3935 3997 4095 4256 4371 4339 4194 4064 3964 3882 3792 3684 3553 3448 3448 3447 3447 3431 3586 3684 3713 3776 3889 3965 3914 3825 3731 3736 3784 3876 3977 4057 4057 3947 3917 3936 3930 3822 3730 3648 3648 3578 3481 3462 3443 3468 3518 3559 3559 3618 3709 3844 3873 3807 3760 3659 3533 3444 3415 3416 3425 3493 3602 3720 3720 3853 4003 4166 4321 4294 4178 4062 3934 3843 3783 3742 3743 3772 3811 3914 3914 4054 4191 4298 4396 4546 4502 4280 4125 3995 3878 3829 3817 3818 3820 3846 3846 3871 3988 4129 4258 4378 4511 4648 4775 -9999 -9999 -9999 -9999 -9999 -9999 -9999 -9999 -9999 -9999 -9999 -9999 -9999 -9999 -9999 -9999 -9999 -9999 -9999 -9999 -9999 -9999 -9999 -9999 -9999 -9999 -9999 -9999 -9999 -9999 -9999 -9999 -9999 -9999 -9999 -9999 -9999 -9999 -9999 -9999 -9999 -9999 -9999 -9999 -9999 -9999 -9999 -9999 -9999 -9999 -9999 -9999 -9999 -9999 -9999 -9999 -9999 -9999 -9999 -9999 -9999 -9999
-9999 -9999 -9999 -9999 -9999 -9999 -9999 -9999 -9999 -9999 -9999 -9999 -9999 -9999 -9999 -9999 -9999 -9999 -9999 -9999 -9999 -9999 -9999 -9999 -9999 -9999 -9999 -9999 -9999 -9999 -9999 -9999 -9999 -9999 -9999 -9999 -9999 -9999 -9999 -9999 -9999 -9999 -9999 -9999 -9999 -9999 -9999 -9999 -9999 -9999 -9999 -9999 -9999 -9999 -9999 -9999 -9999 -9999 -9999 -9999 -9999 -9999 -9999 1626 1524 1478 1447 1373 1295 1293 1358 1370 1322 1322 1280 1254 1240 1167 1142 1168 1177 1209 1319 1425 1483 1519 1469 1403 1305 1305 1185 1100 1046 1034 1043 1075 1141 1174 1224 1287 1343 1416 1407 1321 1274 1274 1273 1327 1417 1506 1530 1581 1638 1642 1690 1713 1738 1840 1921 2008 1990 1990 1949 1913 1909 1884 1862 1864 1858 1829 1808 1788 1775 1756 1744 1732 1769 1769 1756 1721 1765 1862 1933 2030 2161 2297 2321 2352 2478 2586 2683 2664 2676 2676 2782 2901 2878 2853 2871 3013 3192 3299 3183 3110 3152 3197 3220 3256 3339 3339 3415 3490 3541 3580 3641 3714 3775 3859 3813 3727 3637 3617 3569 3425 3361 3361 3296 3212 3238 3348 3449 3553 3670 3737 3755 3802 3927 3937 3840 3748 3685 3685 3601 3576 3571 3604 3626 3563 3546 3546 3572 3571 3608 3661 3724 3822 3934 3934 4074 4212 4349 4489 4401 4268 4098 3975 3877 3804 3741 3623 3461 3409 3408 3408 3396 3511 3576 3591 3638 3734 3870 3949 3910 3840 3816 3805 3866 3980 3964 3964 3809 3715 3756 3825 3766 3685 3606 3581 3480 3414 3418 3415 3408 3412 3450 3450 3531 3638 3757 3864 3860 3831 3710 3575 3470 3398 3372 3402 3499 3582 3691 3691 3803 3932 4084 4233 4194 4056 3997 3937 3857 3777 3747 3740 3732 3763 3873 3873 4038 4195 4330 4420 4525 4498 4315 4152 4014 3890 3812 3801 3795 3792 3817 3817 3836 3946 4085 4195 4307 4434 4562 4690 -9999 -9999 -9999 -9999 -9999 -9999 -9999 -9999 -9999 -9999 -9999 -9999 -9999 -9999 -9999 -9999 -9999 -9999 -9999 -9999 -9999 -9999 -9999 -9999 -9999 -9999 -9999 -9999 -9999 -9999 -9999 -9999 -9999 -9999 -9999 -9999 -9999 -9999 -9999 -9999 -9999 -9999 -9999 -9999 -9999 -9999 -9999 -9999 -9999 -9999 -9999 -9999 -9999 -9999 -9999 -9999 -9999 -9999 -9999 -9999 -9999 -9999
-9999 -9999 -9999 -9999 -9999 -9999 -9999 -9999 -9999 -9999 -9999 -9999 -9999 -9999 -9999 -9999 -9999 -9999 -9999 -9999 -9999 -9999 -9999 -9999 -9999 -9999 -9999 -9999 -9999 -9999 -9999 -9999 -9999 -9999 -9999 -9999 -9999 -9999 -9999 -9999 -9999 -9999 -9999 -9999 -9999 -9999 -9999 -9999 -9999 -9999 -9999 -9999 -9999 -9999 -9999 -9999 -9999 -9999 -9999 -9999 -9999 -9999 1570 1523 1468 1403 1373 1331 1265 1277 1355 1400 1410 1410 1391 1385 1354 1245 1125 1074 1100 1203 1297 1370 1421 1393 1301 1251 1171 1171 1066 1021 1038 1080 1126 1132 1182 1225 1269 1376 1455 1467 1514 1488 1442 1442 1381 1319 1339 1431 1492 1535 1607 1657 1736 1821 1884 1924 1987 2004 2005 2005 1979 1969 1975 1936 1923 1895 1882 1836 1827 1816 1807 1790 1777 1827 1856 1856 1838 1815 1769 1776 1843 1907 1998 2141 2195 2265 2335 2413 2544 2528 2603 2603 2693 2779 2702 2710 2834 3006 3104 3085 2987 2966 3024 3100 3154 3204 3276 3276 3354 3430 3483 3529 3577 3637 3711 3819 3851 3745 3618 3546 3480 3397 3384 3384 3388 3365 3428 3508 3572 3625 3706 3797 3835 3878 3954 3888 3784 3684 3622 3622 3562 3542 3534 3546 3580 3538 3535 3530 3531 3548 3600 3650 3738 3854 3941 3941 4016 4163 4433 4515 4393 4291 4179 4019 3893 3827 3836 3786 3557 3414 3377 3377 3361 3396 3455 3573 3659 3718 3793 3926 4019 3963 3900 3837 3873 3945 3854 3854 3689 3572 3598 3679 3741 3672 3583 3580 3481 3394 3361 3382 3362 3343 3374 3374 3471 3578 3683 3803 3851 3828 3729 3589 3483 3399 3352 3378 3449 3550 3671 3671 3774 3880 4037 4176 4117 4028 4014 4010 3899 3779 3742 3726 3714 3716 3786 3786 3978 4181 4292 4296 4365 4483 4360 4186 4036 3912 3811 3776 3780 3771 3792 3792 3807 3894 4012 4120 4235 4352 4503 4634 4767 -9999 -9999 -9999 -9999 -9999 -9999 -9999 -9999 -9999 -9999 -9999 -9999 -9999 -9999 -9999 -9999 -9999 -9999 -9999 -9999 -9999 -9999 -9999 -9999 -9999 -9999 -9999 -9999 -9999 -9999 -9999 -9999 -9999 -9999 -9999 -9999 -9999 -9999 -9999 -9999 -9999 -9999 -9999 -9999 -9999 -9999 -9999 -9999 -9999 -9999 -9999 -9999 -9999 -9999 -9999 -9999 -9999 -9999 -9999 -9999 -9999
-9999 -9999 -9999 -9999 -9999 -9999 -9999 -9999 -9999 -9999 -9999 -9999 -9999 -9999 -9999 -9999 -9999 -9999 -9999 -9999 -9999 -9999 -9999 -9999 -9999 -9999 -9999 -9999 -9999 -9999 -9999 -9999 -9999 -9999 -9999 -9999 -9999 -9999 -9999 -9999 -9999 -9999 -9999 -9999 -9999 -9999 -9999 -9999 -9999 -9999 -9999 -9999 -9999 -9999 -9999 -9999 -9999 -9999 -9999 -9999 -9999 1590 1510 1427 1378 1382 1330 1274 1226 1257 1320 1348 1411 1411 1461 1384 1290 1242 1123 1041 1091 1180 1196 1223 1240 1236 1154 1083 1031 1031 1009 1041 1096 1136 1217 1257 1301 1351 1361 1457 1549 1545 1538 1569 1585 1585 1521 1447 1391 1370 1407 1461 1547 1656 1742 1807 1874 1938 1961 1953 1991 1991 2023 2040 2043 2007 1968 1918 1900 1879 1867 1834 1814 1812 1856 1913 1921 1921 1901 1869 1842 1834 1837 1842 1879 1983 2157 2206 2240 2263 2315 2410 2517 2517 2572 2578 2577 2717 2864 2890 2857 2806 2793 2829 2898 2976 3042 3127 3219 3219 3285 3349 3414 3470 3535 3599 3667 3781 3851 3747 3638 3523 3438 3418 3497 3497 3556 3546 3561 3635 3726 3774 3806 3891 3982 3987 3946 3820 3713 3604 3522 3522 3504 3511 3488 3490 3536 3521 3508 3491 3501 3527 3569 3644 3729 3840 3999 3999 4085 4144 4367 4546 4435 4318 4219 4079 3956 3930 3952 3856 3637 3457 3360 3360 3332 3319 3357 3514 3630 3701 3820 3886 3922 3798 3708 3725 3774 3852 3775 3775 3640 3506 3484 3543 3593 3596 3551 3658 3585 3444 3332 3347 3333 3294 3335 3335 3463 3585 3691 3772 3730 3691 3659 3573 3469 3383 3338 3342 3398 3500 3614 3614 3724 3844 3966 4069 4138 4114 4139 4154 4021 3822 3737 3706 3682 3678 3705 3705 3835 4012 4084 4125 4256 4433 4372 4217 4069 3938 3827 3758 3756 3747 3747 3747 3757 3826 3938 4045 4172 4308 4439 4567 4689 4782 -9999 -9999 -9999 -9999 -9999 -9999 -9999 -9999 -9999 -9999 -9999 -9999 -9999 -9999 -9999 -9999 -9999 -9999 -9999 -9999 -9999 -9999 -9999 -9999 -9999 -9999 -9999 -9999 -9999 -9999 -9999 -9999 -9999 -9999 -9999 -9999 -9999 -9999 -9999 -9999 -9999 -9999 -9999 -9999 -9999 -9999 -9999 -9999 -9999 -9999 -9999 -9999 -9999 -9999 -9999 -9999 -9999 -9999 -9999 -9999
-9999 -9999 -9999 -9999 -9999 -9999 -9999 -9999 -9999 -9999 -9999 -9999 -9999 -9999 -9999 -9999 -9999 -9999 -9999 -9999 -9999 -9999 -9999 -9999 -9999 -9999 -9999 -9999 -9999 -9999 -9999 -9999 -9999 -9999 -9999 -9999 -9999 -9999 -9999 -9999 -9999 -9999 -9999 -9999 -9999 -9999 -9999 -9999 -9999 -9999 -9999 -9999 -9999 -9999 -9999 -9999 -9999 -9999 -9999 -9999 -9999 1575 1497 1426 1338 1292 1282 1285 1221 1201 1250 1336 1432 1432 1402 1265 1199 1144 1079 1024 1101 1115 1075 1092 1083 1088 1023 1009 1032 1032 1059 1090 1150 1238 1269 1346 1418 1469 1503 1567 1635 1666 1639 1605 1614 1614 1648 1596 1530 1486 1452 1454 1551 1672 1731 1782 1854 1911 1899 1920 1983 1983 2027 2046 2074 2045 1976 1974 1962 1935 1930 1944 1933 1917 1974 2007 2020 2020 1976 1967 1934 1912 1944 1941 1917 1927 2027 2066 2112 2147 2163 2221 2305 2305 2392 2429 2548 2645 2672 2653 2647 2623 2628 2675 2769 2859 2939 3050 3155 3155 3204 3252 3337 3416 3491 3564 3628 3766 3888 3832 3688 3530 3460 3498 3611 3611 3676 3663 3709 3777 3861 3927 3965 4011 4029 3974 3941 3846 3752 3617 3520 3520 3467 3451 3451 3445 3448 3456 3461 3472 3496 3524 3578 3684 3756 3853 3987 3987 4156 4267 4415 4587 4498 4365 4247 4148 4084 4091 4073 3894 3693 3492 3336 3336 3311 3272 3261 3329 3470 3580 3669 3720 3737 3679 3608 3591 3625 3704 3754 3754 3625 3495 3399 3417 3431 3469 3484 3614 3590 3450 3326 3296 3308 3266 3309 3309 3422 3563 3686 3771 3696 3637 3587 3526 3445 3368 3316 3307 3361 3444 3561 3561 3661 3761 3843 3958 4132 4253 4285 4196 4045 3878 3755 3706 3660 3645 3664 3664 3704 3823 3931 4051 4175 4300 4370 4259 4108 3960 3827 3740 3729 3723 3715 3715 3710 3772 3872 4001 4119 4220 4325 4470 4613 4752 -9999 -9999 -9999 -9999 -9999 -9999 -9999 -9999 -9999 -9999 -9999 -9999 -9999 -9999 -9999 -9999 -9999 -9999 -9999 -9999 -9999 -9999 -9999 -9999 -9999 -9999 -9999 -9999 -9999 -9999 -9999 -9999 -9999 -9999 -9999 -9999 -9999 -9999 -9999 -9999 -9999 -9999 -9999 -9999 -9999 -9999 -9999 -9999 -9999 -9999 -9999 -9999 -9999 -9999 -9999 -9999 -9999 -9999 -9999 -9999
-9999 -9999 -9999 -9999 -9999 -9999 -9999 -9999 -9999 -9999 -9999 -9999 -9999 -9999 -9999 -9999 -9999 -9999 -9999 -9999 -9999 -9999 -9999 -9999 -9999 -9999 -9999 -9999 -9999 -9999 -9999 -9999 -9999 -9999 -9999 -9999 -9999 -9999 -9999 -9999 -9999 -9999 -9999 -9999 -9999 -9999 -9999 -9999 -9999 -9999 -9999 -9999 -9999 -9999 -9999 -9999 -9999 -9999 -9999 -9999 -9999 1575 1517 1445 1390 1319 1247 1210 1190 1190 1274 1356 1383 1383 1256 1137 1074 1043 1017 998 1020 1004 993 1013 999 1013 1045 1072 1114 1114 1166 1220 1223 1271 1335 1371 1438 1498 1553 1593 1651 1711 1718 1664 1622 1622 1674 1699 1638 1618 1525 1489 1543 1642 1707 1766 1809 1865 1869 1900 1957 1957 2012 2038 2045 2068 2030 2066 2064 2025 2009 2017 2062 2062 2095 2124 2098 2098 2080 2050 2025 1986 2030 2040 2068 2073 2036 2077 2106 2144 2183 2243 2259 2259 2280 2324 2404 2473 2468 2460 2477 2501 2515 2546 2687 2793 2884 2968 3065 3065 3147 3191 3270 3365 3464 3544 3603 3700 3864 3882 3748 3582 3489 3503 3586 3586 3679 3715 3789 3872 3914 3826 3803 3875 3968 3945 3924 3861 3778 3673 3515 3515 3440 3416 3413 3392 3399 3421 3440 3465 3532 3568 3625 3682 3770 3865 3978 3978 4145 4291 4469 4512 4421 4290 4147 4094 4089 4152 4096 3898 3694 3496 3339 3339 3262 3227 3209 3218 3305 3413 3453 3493 3512 3556 3523 3484 3519 3615 3732 3732 3629 3489 3386 3323 3319 3362 3374 3473 3537 3428 3301 3247 3284 3249 3298 3298 3406 3559 3684 3800 3752 3679 3603 3529 3454 3375 3301 3289 3337 3404 3508 3508 3628 3715 3814 3953 4129 4213 4165 4074 3999 3898 3781 3704 3639 3618 3639 3639 3646 3695 3817 3943 4059 4184 4308 4287 4128 3980 3853 3747 3701 3704 3689 3689 3682 3721 3822 3937 4043 4160 4290 4430 4575 4698 -9999 -9999 -9999 -9999 -9999 -9999 -9999 -9999 -9999 -9999 -9999 -9999 -9999 -9999 -9999 -9999 -9999 -9999 -9999 -9999 -9999 -9999 -9999 -9999 -9999 -9999 -9999 -9999 -9999 -9999 -9999 -9999 -9999 -9999 -9999 -9999 -9999 -9999 -9999 -9999 -9999 -9999 -9999 -9999 -9999 -9999 -9999 -9999 -9999 -9999 -9999 -9999 -9999 -9999 -9999 -9999 -9999 -9999 -9999 -9999
-9999 -9999 -9999 -9999 -9999 -9999 -9999 -9999 -9999 -9999 -9999 -9999 -9999 -9999 -9999 -9999 -9999 -9999 -9999 -9999 -9999 -9999 -9999 -9999 -9999 -9999 -9999 -9999 -9999 -9999 -9999 -9999 -9999 -9999 -9999 -9999 -9999 -9999 -9999 -9999 -9999 -9999 -9999 -9999 -9999 -9999 -9999 -9999 -9999 -9999 -9999 -9999 -9999 -9999 -9999 -9999 -9999 -9999 -9999 -9999 1600 1525 1491 1485 1437 1360 1301 1237 1166 1169 1235 1269 1275 1275 1154 1038 981 975 980 982 983 1004 1046 1045 1055 1121 1166 1197 1252 1252 1278 1327 1353 1378 1433 1464 1471 1482 1543 1603 1647 1717 1758 1707 1680 1680 1713 1799 1753 1718 1671 1595 1558 1613 1668 1721 1786 1824 1835 1874 1925 1925 1976 1995 2023 2079 2100 2128 2145 2119 2096 2093 2147 2202 2219 2227 2210 2210 2207 2153 2103 2129 2182 2202 2233 2192 2136 2194 2245 2279 2391 2467 2461 2461 2416 2396 2383 2382 2391 2414 2441 2470 2495 2531 2648 2747 2819 2887 2978 2978 3080 3158 3221 3322 3424 3517 3589 3689 3793 3889 3813 3666 3557 3511 3536 3536 3644 3703 3795 3876 3907 3788 3697 3733 3815 3848 3795 3755 3664 3567 3500 3500 3400 3388 3387 3355 3370 3394 3424 3475 3526 3604 3688 3747 3830 3896 3975 3975 4110 4306 4456 4395 4257 4138 4035 4031 4040 4121 4090 3882 3699 3532 3370 3370 3259 3194 3169 3156 3180 3238 3294 3333 3328 3354 3403 3393 3430 3537 3672 3672 3610 3463 3350 3274 3236 3250 3264 3307 3364 3347 3234 3193 3233 3226 3294 3294 3415 3559 3681 3829 3856 3738 3616 3517 3424 3354 3297 3273 3320 3396 3504 3504 3625 3708 3808 3948 4138 4181 4067 3992 3935 3881 3792 3710 3650 3588 3594 3594 3587 3618 3718 3849 3986 4120 4254 4303 4159 4009 3872 3748 3684 3682 3672 3672 3656 3682 3806 3947 4065 4180 4263 4374 4496 4608 -9999 -9999 -9999 -9999 -9999 -9999 -9999 -9999 -9999 -9999 -9999 -9999 -9999 -9999 -9999 -9999 -9999 -9999 -9999 -9999 -9999 -9999 -9999 -9999 -9999 -9999 -9999 -9999 -9999 -9999 -9999 -9999 -9999 -9999 -9999 -9999 -9999 -9999 -9999 -9999 -9999 -9999 -9999 -9999 -9999 -9999 -9999 -9999 -9999 -9999 -9999 -9999 -9999 -9999 -9999 -9999 -9999 -9999 -9999 -9999
-9999 -9999 -9999 -9999 -9999 -9999 -9999 -9999 -9999 -9999 -9999 -9999 -9999 -9999 -9999 -9999 -9999 -9999 -9999 -9999 -9999 -9999 -9999 -9999 -9999 -9999 -9999 -9999 -9999 -9999 -9999 -9999 -9999 -9999 -9999 -9999 -9999 -9999 -9999 -9999 -9999 -9999 -9999 -9999 -9999 -9999 -9999 -9999 -9999 -9999 -9999 -9999 -9999 -9999 -9999 -9999 -9999 -9999 -9999 -9999 1554 1459 1401 1389 1344 1279 1249 1206 1146 1141 1168 1175 1197 1197 1108 1002 967 1016 1080 1077 1050 1109 1194 1218 1198 1211 1282 1300 1350 1350 1379 1420 1457 1452 1480 1495 1512 1509 1561 1622 1692 1764 1798 1769 1771 1771 1754 1863 1860 1796 1823 1765 1674 1687 1720 1702 1738 1770 1809 1851 1892 1892 1937 1979 2041 2104 2157 2189 2217 2211 2181 2165 2210 2299 2333 2364 2346 2346 2320 2235 2239 2325 2369 2361 2335 2267 2239 2256 2331 2422 2542 2630 2623 2623 2606 2588 2544 2543 2540 2562 2587 2601 2602 2596 2724 2797 2857 2927 3009 3009 3094 3170 3227 3306 3397 3490 3580 3677 3767 3856 3866 3760 3656 3598 3592 3592 3643 3738 3795 3887 3886 3771 3643 3615 3661 3659 3575 3548 3481 3449 3420 3420 3359 3343 3361 3329 3339 3370 3403 3475 3553 3690 3815 3895 3993 4026 4077 4077 4161 4299 4343 4209 4046 3964 3953 3994 4010 4099 4059 3852 3682 3544 3417 3417 3288 3184 3133 3114 3093 3116 3169 3211 3207 3220 3286 3300 3369 3498 3649 3649 3625 3481 3350 3253 3196 3163 3182 3171 3194 3196 3141 3135 3164 3216 3321 3321 3449 3586 3716 3846 3899 3788 3679 3557 3463 3367 3284 3261 3314 3396 3498 3498 3605 3702 3810 3934 4089 4231 4181 4086 4002 3918 3835 3777 3712 3597 3540 3540 3540 3550 3634 3791 3910 4041 4176 4289 4225 4062 3908 3761 3672 3657 3654 3654 3628 3653 3781 3923 4056 4128 4186 4263 4383 4509 -9999 -9999 -9999 -9999 -9999 -9999 -9999 -9999 -9999 -9999 -9999 -9999 -9999 -9999 -9999 -9999 -9999 -9999 -9999 -9999 -9999 -9999 -9999 -9999 -9999 -9999 -9999 -9999 -9999 -9999 -9999 -9999 -9999 -9999 -9999 -9999 -9999 -9999 -9999 -9999 -9999 -9999 -9999 -9999 -9999 -9999 -9999 -9999 -9999 -9999 -9999 -9999 -9999 -9999 -9999 -9999 -9999 -9999 -9999 -9999
-9999 -9999 -9999 -9999 -9999 -9999 -9999 -9999 -9999 -9999 -9999 -9999 -9999 -9999 -9999 -9999 -9999 -9999 -9999 -9999 -9999 -9999 -9999 -9999 -9999 -9999 -9999 -9999 -9999 -9999 -9999 -9999 -9999 -9999 -9999 -9999 -9999 -9999 -9999 -9999 -9999 -9999 -9999 -9999 -9999 -9999 -9999 -9999 -9999 -9999 -9999 -9999 -9999 -9999 -9999 -9999 -9999 -9999 -9999 -9999 -9999 1426 1333 1280 1239 1206 1171 1149 1125 1103 1070 1072 1088 1088 1026 978 971 1074 1186 1186 1168 1207 1301 1361 1349 1301 1359 1411 1435 1435 1470 1511 1518 1507 1553 1579 1571 1585 1617 1693 1768 1852 1885 1880 1834 1834 1835 1922 1930 1895 1934 1902 1816 1812 1792 1737 1742 1780 1816 1858 1892 1892 1931 1976 2050 2128 2192 2251 2298 2318 2311 2278 2295 2331 2422 2470 2429 2429 2388 2336 2388 2465 2469 2443 2399 2343 2340 2334 2426 2566 2689 2778 2779 2779 2775 2731 2675 2698 2716 2754 2865 2857 2785 2704 2751 2872 2983 3093 3178 3178 3256 3294 3349 3399 3456 3527 3596 3671 3791 3888 3829 3779 3701 3633 3635 3635 3651 3749 3852 3890 3832 3768 3675 3615 3562 3513 3423 3392 3362 3355 3325 3325 3299 3307 3325 3312 3322 3360 3414 3492 3582 3697 3827 3956 4097 4188 4253 4253 4328 4346 4193 3992 3918 3907 3938 3976 3992 4078 4063 3899 3760 3674 3554 3554 3389 3237 3139 3092 3070 3038 3056 3119 3135 3165 3199 3268 3377 3516 3663 3663 3668 3528 3399 3290 3211 3147 3137 3104 3095 3092 3087 3098 3144 3245 3357 3357 3480 3611 3764 3887 3859 3758 3673 3549 3440 3357 3270 3245 3279 3362 3482 3482 3611 3733 3829 3948 4078 4186 4262 4176 4051 3933 3860 3790 3738 3639 3514 3514 3500 3498 3553 3694 3845 3975 4107 4245 4244 4090 3911 3755 3654 3630 3631 3631 3613 3630 3749 3887 4005 4031 4082 4149 4242 4387 4456 -9999 -9999 -9999 -9999 -9999 -9999 -9999 -9999 -9999 -9999 -9999 -9999 -9999 -9999 -9999 -9999 -9999 -9999 -9999 -9999 -9999 -9999 -9999 -9999 -9999 -9999 -9999 -9999 -9999 -9999 -9999 -9999 -9999 -9999 -9999 -9999 -9999 -9999 -9999 -9999 -9999 -9999 -9999 -9999 -9999 -9999 -9999 -9999 -9999 -9999 -9999 -9999 -9999 -9999 -9999 -9999 -9999 -9999 -9999
-9999 -9999 -9999 -9999 -9999 -9999 -9999 -9999 -9999 -9999 -9999 -9999 -9999 -9999 -9999 -9999 -9999 -9999 -9999 -9999 -9999 -9999 -9999 -9999 -9999 -9999 -9999 -9999 -9999 -9999 -9999 -9999 -9999 -9999 -9999 -9999 -9999 -9999 -9999 -9999 -9999 -9999 -9999 -9999 -9999 -9999 -9999 -9999 -9999 -9999 -9999 -9999 -9999 -9999 -9999 -9999 -9999 -9999 -9999 -9999 -9999 1412 1367 1292 1250 1239 1230 1226 1203 1145 1053 1001 986 986 975 956 1006 1124 1221 1269 1277 1273 1328 1428 1466 1419 1449 1506 1521 1521 1538 1549 1561 1589 1665 1698 1693 1689 1677 1751 1869 1975 2012 1987 1911 1911 1954 2035 2033 2021 2034 1994 1957 1927 1846 1769 1748 1792 1836 1882 1929 1929 1958 2001 2058 2124 2191 2272 2342 2435 2441 2386 2384 2437 2507 2489 2453 2453 2437 2433 2504 2525 2528 2506 2440 2415 2420 2431 2509 2609 2681 2815 2899 2899 2923 2864 2819 2829 2899 2907 2959 2995 2913 2813 2802 2827 2932 3066 3180 3180 3272 3375 3453 3495 3554 3608 3659 3734 3845 3898 3888 3839 3751 3661 3646 3646 3673 3749 3828 3838 3836 3774 3698 3647 3563 3451 3368 3341 3301 3265 3231 3231 3245 3263 3269 3285 3307 3342 3405 3505 3613 3733 3853 3978 4128 4276 4352 4352 4238 4122 3945 3859 3861 3906 3934 3961 4024 4141 4194 4088 3941 3788 3649 3649 3492 3339 3215 3098 3034 3004 3003 3048 3089 3166 3252 3340 3453 3592 3729 3729 3712 3589 3482 3385 3311 3214 3116 3118 3058 3060 3071 3097 3169 3316 3436 3436 3544 3659 3805 3891 3782 3681 3644 3559 3445 3354 3271 3235 3241 3324 3432 3432 3543 3645 3741 3827 3942 4046 4177 4183 4065 3973 3929 3871 3797 3679 3530 3530 3461 3459 3496 3613 3768 3907 4044 4172 4179 4035 3883 3749 3643 3607 3602 3602 3596 3599 3704 3841 3966 3969 3989 4030 4092 4219 4413 -9999 -9999 -9999 -9999 -9999 -9999 -9999 -9999 -9999 -9999 -9999 -9999 -9999 -9999 -9999 -9999 -9999 -9999 -9999 -9999 -9999 -9999 -9999 -9999 -9999 -9999 -9999 -9999 -9999 -9999 -9999 -9999 -9999 -9999 -9999 -9999 -9999 -9999 -9999 -9999 -9999 -9999 -9999 -9999 -9999 -9999 -9999 -9999 -9999 -9999 -9999 -9999 -9999 -9999 -9999 -9999 -9999 -9999 -9999
-9999 -9999 -9999 -9999 -9999 -9999 -9999 -9999 -9999 -9999 -9999 -9999 -9999 -9999 -9999 -9999 -9999 -9999 -9999 -9999 -9999 -9999 -9999 -9999 -9999 -9999 -9999 -9999 -9999 -9999 -9999 -9999 -9999 -9999 -9999 -9999 -9999 -9999 -9999 -9999 -9999 -9999 -9999 -9999 -9999 -9999 -9999 -9999 -9999 -9999 -9999 -9999 -9999 -9999 -9999 -9999 -9999 -9999 -9999 -9999 -9999 -9999 1367 1292 1250 1239 1230 1226 1203 1145 1053 1001 986 986 975 956 1006 1124 1221 1269 1277 1273 1328 1428 1466 1419 1449 1506 1521 1521 1538 1549 1561 1589 1665 1698 1693 1689 1677 1751 1869 1975 2012 1987 1911 1911 1954 2035 2033 2021 2034 1994 1957 1927 1846 1769 1748 1792 1836 1882 1929 1929 1958 2001 2058 2124 2191 2272 2342 2435 2441 2386 2384 2437 2507 2489 2453 2453 2437 2433 2504 2525 2528 2506 2440 2415 2420 2431 2509 2609 2681 2815 2899 2899 2923 2864 2819 2829 2899 2907 2959 2995 2913 2813 2802 2827 2932 3066 3180 3180 3272 3375 3453 3495 3554 3608 3659 3734 3845 3898 3888 3839 3751 3661 3646 3646 3673 3749 3828 3838 3836 3774 3698 3647 3563 3451 3368 3341 3301 3265 3231 3231 3245 3263 3269 3285 3307 3342 3405 3505 3613 3733 3853 3978 4128 4276 4352 4352 4238 4122 3945 3859 3861 3906 3934 3961 4024 4141 4194 4088 3941 3788 3649 3649 3492 3339 3215 3098 3034 3004 3003 3048 3089 3166 3252 3340 3453 3592 3729 3729 3712 3589 3482 3385 3311 3214 3116 3118 3058 3060 3071 3097 3169 3316 3436 3436 3544 3659 3805 3891 3782 3681 3644 3559 3445 3354 3271 3235 3241 3324 3432 3432 3543 3645 3741 3827 3942 4046 4177 4183 4065 3973 3929 3871 3797 3679 3530 3530 3461 3459 3496 3613 3768 3907 4044 4172 4179 4035 3883 3749 3643 3607 3602 3602 3596 3599 3704 3841 3966 3969 3989 4030 4092 4219 4413 -9999 -9999 -9999 -9999 -9999 -9999 -9999 -9999 -9999 -9999 -9999 -9999 -9999 -9999 -9999 -9999 -9999 -9999 -9999 -9999 -9999 -9999 -9999 -9999 -9999 -9999 -9999 -9999 -9999 -9999 -9999 -9999 -9999 -9999 -9999 -9999 -9999 -9999 -9999 -9999 -9999 -9999 -9999 -9999 -9999 -9999 -9999 -9999 -9999 -9999 -9999 -9999 -9999 -9999 -9999 -9999 -9999 -9999 -9999
